# .PCD v0.7 - Point Cloud Data file format
VERSION 0.7
FIELDS x y z
SIZE 4 4 4
TYPE F F F
COUNT 1 1 1
WIDTH 1476
HEIGHT 1
VIEWPOINT 0 0 0 1 0 0 0
POINTS 1476
DATA ascii
-5.4137173 -1.8903894 -0.27897334
-0.65160143 -0.13566495 -0.35314512
-0.0035296082 0.0012755026 0.0018212546
-5.4154081 -1.9029891 0.076928131
-3.7762485 -1.5013763 -1.3638691
-2.7829034 -0.69990027 -1.3497902
-5.4044466 -1.9404833 -1.26525
-3.4204507 -0.64042604 -1.3493907
-5.5161448 -2.7186 -0.27618632
-6.820508 -1.2801874 -0.1481698
-5.5203924 -2.7009928 -0.13215062
-5.5159798 -2.7160938 0.051349606
-4.1100926 -1.6203457 -1.3687472
-5.5166779 -2.7085996 0.50394666
-5.516655 -2.699981 0.72856039
-0.0035296082 0.0012755026 0.0018212546
-5.5129185 -2.7382066 0.87537229
-4.2991962 -0.99024361 -1.3662417
-2.9858501 -1.2991018 -1.3518982
-5.0407934 -1.7037786 -1.3818738
-5.5201511 -2.7203517 -0.49150836
-3.4277589 -0.62141579 -1.3508302
-0.0035296082 0.0012755026 0.0018212546
-4.3224101 -0.88902503 -1.3666116
-2.9836094 -0.69510502 -1.3552654
-3.4277234 -0.60045278 -1.3493718
-5.7942924 -1.1926749 -1.389233
-5.7560253 -1.0797824 -1.3752588
-2.0274906 -1.0182853 -1.3379147
-3.1905177 -0.69446105 -1.3549079
-4.5415449 -1.6691368 -1.377056
-3.1500556 -1.4818385 -1.351
-3.4920256 -1.3645114 -1.3554859
-2.2170286 -1.0774268 -1.3415635
-4.7246704 -0.88588917 -1.3674576
-0.0035296082 0.0012755026 0.0018212546
-7.6353292 -1.2034328 1.1003351
-4.8040886 -2.2966282 -1.3835241
-2.4242792 -1.079442 -1.3459418
-3.5302863 -1.2616271 -1.3553727
-3.845844 -1.2990448 -1.3621546
-3.7000432 -0.5814178 -1.353412
-5.0940228 -1.5404702 -1.3819026
-6.4522028 -0.97765857 -1.3736314
-5.3943024 -1.5129865 0.33691078
-5.2489672 -0.79489249 -1.3779734
-7.9343004 -1.1554142 0.38851479
-3.708693 -0.54970843 -1.3547604
-7.8579884 -1.143903 -0.54037851
-5.1207533 -1.4352947 -1.3808274
-5.1886845 -1.586046 -0.88057345
-7.9721851 -1.1612514 1.1468261
-5.4003239 -1.4968301 -0.51200396
-5.3828745 -1.5094264 -0.31516966
-5.3880768 -1.5110495 -0.11939035
-5.3869543 -1.510808 0.075304918
-4.0122743 -0.57096261 -1.3591938
-5.392314 -1.5209395 0.5329836
-5.3726864 -1.5412135 0.72973162
-5.4548779 -2.2928553 -1.3246957
-5.4448051 -2.2786903 -1.1008618
-5.4647379 -2.2872601 -0.89188331
-5.4675341 -2.2886138 -0.68226522
-7.0272789 -1.2554938 -0.15244286
-5.395545 -1.5123558 -1.3160754
-5.3659382 -1.5234036 -1.1166506
-5.4072046 -1.4985946 -0.91067618
-5.4018068 -1.4971687 -0.71064234
-7.8065796 -1.1844347 1.1240025
-8.1611147 -1.1408596 1.1730281
-5.7760735 -1.4205608 0.28838193
-5.5726728 -1.4400332 -0.12277761
-5.5818014 -1.4425224 0.077616155
-5.7808352 -1.4032671 -0.47402963
-5.5935678 -1.4456923 0.28011024
-5.6059628 -1.4490062 0.4831278
-5.6159 -1.4517032 0.68893576
-5.5984764 -1.4353362 -1.3011138
-5.8346367 -1.4354728 1.1430475
-5.5812283 -1.441677 -1.0743867
-5.6265392 -1.4184991 -0.87291622
-5.63906 -1.4217802 -0.66870832
-5.6429644 -1.422894 -0.46368882
-5.5860958 -1.4343356 -0.29114723
-5.7639532 -1.4174565 0.079882763
-4.3711786 -0.56986761 -1.3648592
-5.7973022 -1.4259114 0.4981443
-5.8071489 -1.4284568 0.71027905
-5.775424 -1.4195043 -1.2519493
-5.9541998 -1.4089607 1.0901358
-5.7677441 -1.4177016 -1.1070315
-5.7779531 -1.4024462 -0.68369132
-5.7908936 -0.75569874 -1.3711801
-8.5298328 -1.0893728 1.021126
-5.9048119 -1.3965753 -0.12946308
-3.3228564 -1.0463898 -1.3513188
-5.9140158 -1.3988743 0.081770279
-5.9226208 -1.4010327 0.29505596
-8.6626062 -1.0553908 0.21848716
-5.9445534 -1.4063491 0.50966042
-3.626606 -1.8248663 -1.3628203
-5.9655476 -1.4114451 0.72808254
-6.6891222 -1.2966083 -0.14546517
-7.3892765 -0.94306034 -1.3886031
-5.9373236 -1.4036269 -1.2843213
-5.9188414 -1.3993336 -1.1336257
-4.6467905 -1.3018849 -1.3730917
-4.7755442 -0.56613141 -1.367752
-8.8356161 -1.0230465 -0.60542965
-4.8849125 -2.1278272 -1.3841214
-2.0708449 -0.92874503 -1.3384229
-8.970108 -1.0392567 1.0722717
-3.891192 -1.1512274 -1.3614141
-3.5859654 -1.0950425 -1.3554366
-7.8668394 -1.1937524 1.5136044
-6.4213581 -1.2436353 -1.3769158
-6.6265278 -1.3041692 0.091018073
-5.5208492 -2.7003651 -0.99862832
-2.378273 -0.89615774 -1.3436089
-7.0199251 -1.2536255 -1.3293388
-7.0052671 -1.2440118 -1.0983391
-4.2749996 -1.1034355 -1.3674927
-7.7554703 -1.1763574 0.38011017
-7.7929325 -1.1822824 0.93603164
-2.592953 -0.88796788 -1.3476949
-6.9619713 -1.2505957 -0.86871672
-7.0067139 -1.2516646 -0.48425457
-6.9982891 -1.2721775 0.34474343
-5.8841228 -1.3914759 -0.48180357
-8.2227392 -1.1496475 1.5793735
-3.7033453 -0.49362028 -1.3499714
-5.5215178 -2.7009768 -0.70793921
-5.9422703 -1.2963537 -1.2803028
-9.1891584 -1.0110846 1.0977272
-5.5334597 -2.8301136 0.73711461
-2.1962035 -0.87929243 -1.3392379
-2.9468467 -0.89449519 -1.3543867
-4.1540689 -1.4989983 -1.368207
-3.6739082 -1.7290201 -1.3629392
-7.2383451 -1.2283416 -0.32863608
-7.4083729 -1.2135961 0.10096002
-3.3666589 -0.889467 -1.3506861
-7.21101 -1.24517 0.35464913
-6.5989037 -1.3187922 0.32618737
-4.3516574 -0.69776899 -1.3647646
-5.2119017 -1.0092108 -1.3780713
-7.371664 -1.2073042 -0.50826794
-3.6393874 -0.89370823 -1.3545917
-9.2767792 -0.88355225 1.5479001
-8.3549786 -1.0661006 -1.3674508
-8.3626299 -1.067155 -1.1686347
-8.3878641 -1.070533 -0.77297509
-8.4073925 -1.0731051 -0.57684809
-8.4243879 -1.0753535 -0.38031414
-8.434907 -1.0767745 -0.18176895
-8.4864893 -1.0835984 0.41450152
-2.2063713 -0.73065597 -1.340439
-9.9057837 -0.79699439 1.1800214
-7.8138256 -1.1856151 1.3127875
-11.232298 -1.1028552 -0.76871252
-4.3783884 -0.46720049 -1.3633405
-5.2322245 -0.90237415 -1.3782728
-3.679863 -0.68950415 -1.353084
-5.534688 -2.8286607 -1.3097643
-5.5224934 -2.82265 -1.0823876
-5.5411663 -2.8325799 -0.71684957
-5.5348454 -2.8295686 -0.49656805
-5.5312166 -2.8279324 -0.2790916
-5.5278721 -2.8265877 0.082419693
-5.7053347 -1.38439 -1.3788071
-6.8308544 -1.2822487 0.093518086
-5.529623 -2.8279264 0.5171656
-7.0928659 -0.61077958 -0.9863894
-9.8684292 -1.0284636 1.1780616
-4.5967159 -1.4935889 -1.3754122
-7.185626 -1.2626511 1.1253387
-0.0035296381 0.0012755027 0.0018212547
-4.3913841 -0.28715882 -1.3625435
-11.210299 -0.90090507 -0.7659241
-4.7891607 -0.18700527 -1.3629787
-11.232595 -1.1030526 -0.24176921
-11.219777 -1.0346633 0.020178739
-11.228413 -1.1028318 0.2820614
-11.238032 -1.1038662 0.54668373
-6.9986353 -1.250145 -0.64971137
-11.233779 -1.0699472 1.0728487
-7.0247698 -1.2549757 -0.31939742
-0.71119916 -0.091199718 -0.33458447
-0.0035296082 0.0012755026 0.0018212546
-9.8897266 -0.91217935 1.1792783
-2.4088697 -1.2106405 -1.3463532
-9.9222956 -0.68107915 1.1809977
-4.8036528 -0.15906596 -1.366809
-11.21664 -1.0340334 -1.03025
-0.0035296082 0.0012755026 0.0018212546
-5.2540483 -0.68562931 -1.3753294
-4.8006754 -0.1304872 -1.3657064
-0.0035296082 0.0012755026 0.0018212546
-11.213758 -1.0670574 -1.8294727
-4.8013563 -0.10286802 -1.3657006
-7.9410381 -1.156474 0.57572216
-7.953289 -1.1583383 0.76439881
-11.209848 -0.90103656 -0.24082831
-11.208451 -0.90100729 0.0201829
-11.197693 -0.90021664 0.28091568
-11.212013 -0.90145761 0.5446257
-11.211863 -0.90159708 1.0694355
-5.5048904 -2.5746207 0.43528876
-0.0035296082 0.0012755026 0.0018212546
-2.7639396 -1.2997203 -1.3519355
-4.3966718 -0.11986607 -1.3616422
-11.208493 -0.7028414 -0.76477706
-8.8760195 -1.027959 0.016306832
-4.7903385 -0.075061359 -1.3624063
-11.210682 -0.96645647 -1.0291334
-9.9803009 -0.15862329 1.1853644
-0.0035296082 0.0012755026 0.0018212546
-4.3929281 -0.042664018 -1.3599671
-8.8852024 -1.0290996 0.22391947
-4.802249 -0.046784244 -1.3656895
-3.4677982 -0.32867116 -1.3505927
-7.3817348 -1.2085646 -1.3944623
-9.9850445 -0.099447213 1.1858469
-0.0035296082 0.0012755026 0.0018212546
-4.381649 -0.017347025 -1.3564069
-4.8005238 -0.019150345 -1.3651364
-4.7108974 -0.99831951 -1.3698623
-11.205354 -0.70278442 -0.24036856
-11.201287 -0.70260036 0.020205028
-11.195179 -0.70229208 0.28055859
-11.210196 -0.7033276 0.54391134
-8.4534044 -1.0792531 0.11452423
-11.21142 -0.70356035 1.0681061
-8.4984379 -1.0852027 0.61460304
-3.033545 -0.49471202 -1.359524
-8.3195477 -1.1125989 0.79826719
-3.4512982 -0.49082023 -1.3518602
-8.3502645 -1.1168697 1.1992309
-3.7216101 -0.45623142 -1.3548599
-4.3835945 0.0086238068 -1.356995
-9.943327 -0.5072332 1.1823012
-5.5319395 -2.827709 -0.86214399
-5.2643414 -0.49991548 -1.3724949
-11.190534 -0.50532997 -0.76277322
-6.0012674 -1.2355645 -0.48822069
-9.0456553 -0.99466836 -0.61944747
-7.4006615 -1.0992857 -1.3947825
-9.983551 0.017297521 1.1856321
-4.372014 0.034514271 -1.3534353
-8.1715755 -1.0920228 -1.1427903
-8.2149658 -1.0980601 -0.56405616
-9.9892387 0.076574795 1.1863487
-4.3813009 0.059789523 -1.3563943
-5.431612 -2.0879557 -1.2964566
-5.42132 -2.0841582 -1.0830927
-5.4437809 -2.0931294 -0.67116702
-5.4400415 -2.0918655 -0.46492392
-11.196201 -0.50589621 0.54277295
-5.5202427 -2.8234954 0.881679
-3.9208567 -1.0487827 -1.3616036
-9.9926081 0.13415207 1.1868287
-2.7624617 -0.89035499 -1.3497791
-4.3866081 0.085863262 -1.3581684
-7.3968277 -0.83429366 -1.3875227
-5.4380503 -2.0912724 -0.2611196
-5.4394026 -2.0923808 0.48589528
-10.013487 0.19385637 1.1894288
-4.0390806 -0.31133226 -1.3586251
-3.0587306 -0.37086105 -1.3625425
-5.5195684 -2.7196996 -0.85379547
-4.7804604 -0.46790639 -1.3661284
-11.167163 -0.30657104 -0.76063859
-8.978406 -1.0402972 1.2865694
-5.4361382 -2.0907912 0.077965438
-5.4437523 -2.0942216 0.69235104
-7.4342623 -0.55267763 -0.68107474
-6.7802982 -1.2721601 -1.1197739
-6.7956209 -1.2752753 -0.63184434
-6.8003874 -1.2762492 -0.4707182
-6.8211021 -1.2802205 -0.31060788
-0.51702356 -0.012092269 -0.17083612
-6.790699 -1.2954798 0.33507967
-5.3916483 -1.7011923 0.075926885
-6.8126087 -1.2997513 0.4976587
-6.8033676 -1.2980586 0.65880704
-6.7785616 -1.3146082 1.1469885
-9.9623213 -0.3031154 1.1836257
-5.2672949 -0.29849401 -1.3692476
-7.4255381 -1.216529 0.36465135
-5.4945154 -2.6872926 -1.1412128
-11.076015 -0.046113275 -1.7985603
-3.7342737 -0.32077515 -1.3542881
-11.18619 -0.70112365 -1.8202144
-7.4111128 -0.71193087 -1.3877866
-10.005781 0.31134021 1.188894
-11.142905 -0.11141142 -0.75869209
-11.218026 -1.067678 -1.2969806
-5.4681482 -2.4787524 -1.1199654
-5.3949156 -1.7016819 -0.71735013
-5.3891945 -1.7000171 -0.51645404
-5.3906679 -1.7006223 -0.31883329
-0.51126176 0.020028492 -0.16891944
-3.9886048 -0.69925416 -1.3583301
-5.3899832 -1.700999 0.53756255
-5.3914118 -1.7015994 0.73800635
-2.6265578 -0.55527133 -1.3397768
-5.4940948 -2.4909418 -0.69456798
-3.2301261 -1.2946391 -1.3502538
-7.3599739 -1.2053096 -0.68161881
-5.4903479 -2.4890432 -0.90776992
-5.2653284 -0.097623229 -1.366684
-9.9854584 -0.04194637 1.1858575
-8.1956968 -1.095328 -0.95120418
-11.156021 -0.50347322 -1.8135296
-8.1977701 -1.0956823 -0.75601548
-7.6017895 -1.17472 -0.70304364
-11.102048 0.1492582 -1.0151883
-11.200786 -0.89996666 -1.2932637
-8.2585545 -1.1041622 0.11196974
-8.1984196 -1.1207141 0.40092912
-8.2117271 -1.1226286 0.59459102
-8.1524134 -1.1395631 0.97751808
-4.0225248 -0.47666508 -1.3585206
-8.1730175 -1.1426049 1.3707792
-10.253157 -0.9449175 -1.4276922
-5.3866663 -1.528396 1.0651754
-6.6509237 -1.3296046 1.1266719
-7.6089973 -1.175915 -0.5239144
-9.2517624 -0.96334618 -1.0702332
-8.748888 -1.066228 1.0465807
-11.092247 0.11730085 -1.8012615
-5.4406195 -2.0917609 -0.87736738
-11.092748 0.28006938 -0.75540608
-11.085463 0.2799316 -1.0138929
-11.094142 0.34653917 0.020207569
-11.093135 0.27994892 0.27775732
-11.095178 0.31258976 0.53769958
-5.4310541 -2.0894916 0.89715374
-11.092201 0.31244779 1.0552948
-11.139018 -0.30487716 -1.8095247
-7.6490021 -1.2056705 1.2862481
-9.1036377 -1.001356 0.22925228
-9.0640974 0.84147 1.5123395
-10.943875 1.1112332 -1.5250119
-11.025694 0.92609841 0.7937476
-11.095528 0.31269026 -0.23741293
-4.380033 0.14993811 -1.3566788
-5.8061028 0.096131355 -1.3631703
-11.069203 0.50629461 -0.23698227
-11.070761 0.50634396 0.020196289
-11.061363 0.50587595 0.2771942
-11.069868 0.50623626 0.53685236
-6.8180113 -1.3009688 0.90624899
-11.071926 0.50628668 1.0540869
-6.8101978 -1.320835 1.3196483
-10.266972 -0.49340674 -1.425087
-8.8018932 -1.0189842 -1.0194153
-6.7760582 -1.2714812 -0.87410814
-11.065013 0.50613564 -0.75404143
-5.9685249 -1.3028672 0.29622936
-11.06934 0.44159526 -1.0128698
-11.003901 1.1179565 0.79346544
-11.063092 0.5060451 -0.49607801
-10.008813 0.51648462 1.1902893
-7.5642271 0.013771781 -1.2275276
-7.8171444 -1.1377182 -1.0949514
-11.113062 -0.11024313 -1.8046706
-5.4884205 -2.4887557 -0.27043971
-11.034763 0.73136842 -0.49534869
-11.039359 0.73165262 -0.23659071
-11.0459 0.73207361 0.020193849
-11.033189 0.73122823 0.27682257
-11.041698 0.73175979 0.53611469
-5.3815956 -1.6986309 0.93737
-11.039499 0.73159015 1.052214
-11.066451 0.24641992 -1.7973912
-8.354043 -0.89454281 1.5983348
-5.3946743 -1.6141864 -0.91395897
-11.035542 0.73143196 -0.75286567
-4.3778214 0.27812883 -1.3579514
-7.588726 -1.1957645 0.37228477
-11.205782 -0.90063673 -0.50388575
-11.018793 0.92556453 -0.23645224
-11.018016 0.92548716 0.020180881
-11.009974 0.92481565 0.27661619
-11.019142 0.92555714 0.53573787
-5.3947802 -1.52169 0.93115336
-11.020279 0.92564356 1.0517821
-10.261018 -0.042668629 -1.4225146
-7.3342791 -1.2009401 -1.0300703
-5.7689886 0.50173271 -1.3593193
-8.0508938 -1.1248155 -0.36398345
-10.014399 0.72287714 1.1924632
-7.968832 -1.160684 0.95630389
-5.5958786 -1.4641147 1.1003716
-8.2480125 -1.1026371 -0.17785783
-11.212303 -0.67064607 -1.0272224
-11.007703 0.92464685 -0.75194848
-10.970608 1.3109334 0.53528893
-5.2463541 0.30210567 -1.3636922
-10.994043 1.1169529 0.53538752
-10.237632 0.13832971 -1.4193676
-7.486289 -1.1789864 -1.050413
-10.966763 1.3104595 0.27651796
-4.751111 -0.69072002 -1.365648
-5.7378159 0.70308673 -1.3569541
-6.5153313 0.096436724 -1.3712641
-5.4467468 -2.0947189 -0.12496392
-10.987267 1.116285 -0.75176346
-6.687851 -1.296283 -0.30486813
-8.3401413 -1.1154355 0.99920416
-6.5092087 0.31771785 -1.3714441
-6.613203 -1.3217331 0.48393217
-6.6165028 -1.3226324 0.96057111
-5.2230005 0.50050896 -1.3615865
-6.6926546 -1.3380421 1.2983438
-8.5672522 -1.0432284 -1.1964055
-8.5846548 -1.045427 -0.99492246
-8.5856667 -1.0456265 -0.79066491
-8.6095285 -1.0486128 -0.59032166
-8.6434259 -1.0528998 -0.18615526
-5.1003771 -1.6576149 -1.1289822
-9.0110388 -0.99070519 -1.042992
-11.187037 -0.50511491 -1.0240774
-6.173914 0.15581375 -1.2994646
-10.969133 1.3107708 1.0506488
-10.889667 1.8881608 0.27665967
-5.7249184 0.85519606 -1.358717
-6.5256042 0.43262655 -1.3761793
-5.1915112 0.71357208 -1.3598655
-5.8372869 -1.2911847 -1.40405
-7.7897816 -1.1573967 -0.35258827
-0.63743705 -0.096468605 -0.32861218
-10.961872 1.3098408 -0.75149328
-10.946974 1.5042561 1.0508929
-11.134201 -0.11129788 -1.0181522
-4.7149868 0.67632973 -1.3544641
-4.2915039 0.70589513 -1.3464532
-4.7907915 -0.29936162 -1.3652005
-0.4807395 0.053960755 -0.15993117
-6.5605679 -0.1034504 -1.0644916
-10.928274 1.6971028 0.79334646
-5.2602091 0.1026485 -1.3653557
-5.1437979 0.90730995 -1.3554008
-7.2409048 -1.2283062 -1.3691474
-7.1896381 -1.2197148 -1.0973122
-7.2039099 -1.2222569 -0.84043068
-7.2115288 -1.2236296 -0.66849083
-7.1899185 -0.52078247 -0.99883205
-9.1415253 -1.0056065 0.44550389
-5.3990297 -1.7033916 -0.1209278
-11.040621 0.53731227 -1.7948442
-10.939739 1.503154 -0.75168276
-4.339541 0.55361366 -1.3541943
-7.98668 -1.1634451 1.3406374
-10.839133 2.3076389 0.27734429
-8.9192781 -1.033129 0.4349767
-10.910174 1.8584496 0.79390228
-11.115812 0.052465528 -1.0163896
-6.7264366 1.1253393 -1.2707232
-10.891241 1.8883449 -0.49513939
-10.89578 1.9224513 -0.23663184
-10.895336 1.922407 0.020148814
-5.1190596 1.0276775 -1.3548301
-10.895447 1.9224917 0.53596812
-10.889862 1.954893 1.0521762
-7.1256161 -0.27917433 -0.9879486
-7.5629902 0.013739495 -1.0478554
-0.0035296082 0.0012755026 0.0018212546
-8.3185596 2.0537424 1.6300715
-10.943301 1.5037044 0.2765432
-4.9187527 -2.0412223 -1.3832909
-4.2628026 0.90747988 -1.3492216
-6.561759 -0.10350019 -0.90896481
-10.916018 1.6628953 -0.75164807
-0.0035296082 0.0012755026 0.0018212546
-8.3104086 2.1025751 1.6308069
-4.6973534 0.77172142 -1.3535947
-10.814359 2.5349889 0.27793026
-11.008496 0.72967941 -1.7914058
-10.9013 1.7571076 -0.75165629
-4.3124528 0.70872265 -1.3528224
-7.3917904 -1.2329485 1.0668043
-10.861848 2.0802898 -1.0111673
-10.870082 2.0819905 -0.23673211
-10.877825 2.0835068 0.020147454
-10.868582 2.0817621 0.27698293
-10.878901 2.0837879 0.53657395
-8.6327419 -1.0515203 -0.38946879
-10.829773 2.403692 -1.5380615
-10.875389 2.0831778 1.0530413
-5.7710552 -1.400649 -0.89339411
-8.6652737 -1.0556409 0.015953835
-7.9864111 -1.1154876 -1.1177706
-5.7986488 -1.4077176 -0.266947
-7.6057644 -1.1985309 0.55242032
-5.6068134 1.2967962 -1.3509206
-5.0902929 1.1302956 -1.3530874
-10.890707 1.8882267 -0.75244194
-3.228591 -0.49762821 -1.3553298
-9.1081772 0.49687147 1.2987376
-9.1145821 0.47035784 1.5162503
-11.137575 -0.11141395 -0.4990187
-11.192657 -0.50553161 -0.23981418
-10.841713 2.2751632 -1.0129012
-10.846343 2.3090641 -0.23723923
-10.848352 2.309531 0.020137444
-3.8951962 0.95305967 -1.3446145
-10.851354 2.3102808 0.53740573
-5.719142 -1.3518891 -1.380162
-11.171888 -0.30680272 -0.23916455
-10.850874 2.3102705 1.0550058
-5.8687525 -1.3875955 -0.90725213
-5.8789825 -1.3901386 -0.6946727
-5.8982849 -1.3949492 -0.27115899
-3.6091511 1.0030564 -1.353291
-3.9468923 0.79245543 -1.3497851
-10.917294 1.6953466 0.27657947
-10.839384 2.3075438 -0.49648869
-7.6516056 -1.1599675 -1.0726826
-3.9129357 0.87403679 -1.3443855
-4.2117653 1.1048706 -1.3480061
-6.6185007 -1.3229126 0.72197145
-10.985425 0.92281157 -1.7900058
-10.866985 2.0813065 -0.75323868
-5.5478687 1.4899175 -1.3485258
-3.2449617 -0.3744117 -1.3549732
-10.787292 2.52701 -1.0130719
-10.788433 2.7294753 -0.49864343
-10.811352 2.5341125 -0.49752107
-7.4034586 -0.63813412 -1.3850712
-10.817049 2.5355597 0.020124409
-3.8682973 1.0753522 -1.3463453
-10.820665 2.5365107 0.53829437
-7.2190113 -1.2249784 -0.49819925
-10.821578 2.536829 1.0569314
-10.721486 3.2540181 -0.50220466
-7.2400303 -1.2287054 -0.15684491
-7.1828279 -1.2401727 0.098029546
-7.2265396 -1.2479345 0.52618444
-3.8295641 1.1620365 -1.3419129
-6.6524706 -1.2890232 -1.0998849
-10.711535 3.3205187 -0.50267553
-6.2086544 0.17560032 -1.0823598
-10.925533 1.6967111 1.0515097
-9.2313251 -0.49840415 1.3160977
-11.155757 -0.30618843 -1.0205033
-11.163204 -0.30650648 -0.50037622
-8.9147854 2.1176896 1.3044713
-3.8226097 1.1847082 -1.3419205
-11.170801 -0.30694979 0.54124331
-10.788854 2.7297697 0.27841663
-11.17987 -0.30726027 0.80216193
-3.1994467 0.99078745 -1.3428185
-10.764715 2.9248803 -0.49989149
-8.0364981 2.5942895 -1.3709171
-6.3702822 1.7310894 -1.3091491
-6.3618927 1.7682536 -1.0713086
-6.3781166 1.7728523 -0.76090622
-8.1372986 -1.1373689 0.78142691
-11.148906 -0.11157389 -0.23855017
-9.9860334 1.4914595 1.1991297
-11.217641 -0.90198272 0.80700558
-11.136722 -0.11157899 0.27870625
-11.147843 -0.11172109 0.53999656
-11.153628 -0.11180903 0.80005944
-3.0773759 0.99320614 -1.3411407
-4.5536118 1.3091375 -1.3474696
-10.838824 2.3073719 -0.75445563
-5.5098581 1.6542037 -1.3504816
-5.9745264 -1.3182473 1.090104
-10.738367 3.1219158 -0.5012055
-9.9401131 1.6932566 1.1975204
-3.549829 1.0883785 -1.3414891
-6.4292765 0.96076238 -0.74702263
-4.9401636 1.6260605 -1.349705
-9.8876448 1.7445301 -1.39179
-3.5155187 1.1801579 -1.3397347
-10.908735 1.858233 1.0523767
-4.5131264 1.4272677 -1.346069
-9.0547123 0.94670147 1.5125041
-5.0443602 1.307505 -1.3523369
-11.116129 0.05238511 -0.49800125
-11.124505 0.084713459 -0.23798433
-11.217178 -0.7038272 0.80601561
-11.116322 0.084570132 0.27822644
-10.931371 1.3387589 -1.7881864
-11.124131 0.084583372 0.53887296
-11.129284 0.08458484 0.7983321
-9.0765152 -0.99821806 -0.19527163
-9.8357821 1.9136629 -1.3890634
-8.3537035 -1.1174088 1.3999395
-8.0448837 -1.1720178 1.546489
-10.811416 2.5340753 -0.75604326
-5.4621687 1.7452854 -1.3461641
-11.164474 -0.30666229 0.020211972
-11.09002 0.27995545 -0.49694952
-4.109787 1.4060787 -1.3446975
-10.918772 1.4678886 -1.7888336
-8.8580828 -1.0258031 -0.19067019
-7.398818 1.9180682 -1.2404445
-11.031732 1.0560285 -1.7994175
-5.1530323 -1.2984203 -1.3797376
-3.5015545 1.1979187 -1.3370186
-7.3641777 -1.2505213 1.4209284
-5.4133673 1.8704367 -1.3446095
-10.707482 3.3869491 -0.50341624
-4.9841471 1.5124071 -1.3517503
-11.187137 -0.50544846 0.28014573
-11.10889 0.21514775 -0.23766287
-11.201897 -0.50622249 0.80421054
-11.193532 -0.50589603 1.0654474
-11.110526 0.21507114 0.53831381
-11.108338 0.24697785 0.79702318
-9.7960386 2.0857146 -1.3884037
-3.0557349 1.0555121 -1.340909
-6.8576202 2.4377151 -1.3565629
-5.3801003 1.9473213 -1.3432678
-7.1060514 1.8421402 -1.368104
-4.9188442 1.6832889 -1.3492239
-6.5256348 -0.48492628 -1.3771681
-4.4418306 1.607615 -1.3433996
-3.025466 1.1151258 -1.3373517
-6.8286858 2.4717858 -1.3536423
-3.264214 1.1062882 -1.336328
-10.785887 2.7287676 -0.75754029
-5.3483667 1.9717704 -1.3382438
-4.430418 1.633245 -1.3428627
-5.1371279 -1.6881975 -1.0671599
-3.0155439 1.1312027 -1.3358235
-3.4769394 1.2583823 -1.3359544
-4.0766602 1.4755543 -1.3422381
-10.017976 0.90030628 1.1945903
-9.0329561 1.1065116 1.5119281
-7.8417282 2.9425883 -1.3598309
-11.161038 -0.30663162 0.27936295
-10.697774 3.3841534 0.28049806
-4.4209461 1.6587025 -1.3428741
-10.698133 3.3843594 0.54320586
-11.171557 -0.30707961 1.0627203
-4.8603401 1.8236223 -1.3472705
-7.0121107 -1.2747723 0.51138592
-10.760649 2.9239712 0.27891392
-7.0064087 -1.2738127 0.67735362
-5.3442202 2.0052452 -1.3400896
-7.0299702 -1.2781826 0.84857047
-3.0158885 1.151153 -1.338903
-7.0147924 -1.2963295 1.357021
-3.4521706 1.3177814 -1.3350275
-4.0437226 1.5437076 -1.3400171
-10.688962 3.5197875 -0.50451106
-9.0094032 1.3189143 1.5127362
-4.4113283 1.6841038 -1.3428856
-4.8443403 1.8494804 -1.345773
-5.3525991 2.0435972 -1.3451414
-3.007292 1.1683267 -1.3381433
-3.4407933 1.3368481 -1.333675
-4.0327187 1.5669508 -1.3394355
-5.3294983 2.0710595 -1.3424082
-5.9650631 -1.2919608 -1.0638226
-4.403059 1.7109146 -1.343446
-4.8314838 1.8774599 -1.345283
-6.7635546 2.6285295 -1.3526123
-2.9985974 1.185439 -1.337384
-3.4293113 1.355826 -1.3323227
-4.025135 1.5915226 -1.3400396
-8.6080046 -1.0221012 -1.4073932
-10.765359 2.9249864 -0.75963324
-5.3080711 2.099035 -1.3401332
-7.7959709 3.0564814 -1.3595628
-6.5166235 -0.30564034 -1.3729942
-10.685139 3.5187364 0.020074736
-10.674876 3.5154216 0.28091595
-4.3910484 1.7362717 -1.3429102
-10.680269 3.5173204 0.54431719
-11.147361 -0.11181771 1.060113
-4.8184671 1.905352 -1.3447932
-10.690213 3.5904918 1.0720053
-10.665108 3.7207813 -0.50647253
-2.6450994 1.0546892 -1.3387365
-2.9915195 1.2031776 -1.3373927
-3.4264481 1.3782229 -1.3343756
-3.715498 1.4436474 -1.3367178
-10.005915 1.1061128 1.1956122
-4.3806772 1.7622632 -1.3429228
-4.0156293 1.6153454 -1.3400513
-9.9444818 1.9049575 1.2024616
-4.8034935 1.9324319 -1.3438003
-2.6375022 1.0783513 -1.3396007
-2.832211 -0.52143502 -1.3543557
-7.2625408 2.9708302 -1.2738864
-3.4132404 1.3957669 -1.3323424
-3.1968851 1.2529225 -1.331249
-3.9974275 1.6347986 -1.3370993
-11.145483 -0.11157216 0.020213988
-5.9263983 2.4240777 -1.347721
-8.2376432 -1.101172 -0.37214893
-2.6229038 1.090019 -1.3353446
-2.9810162 1.228918 -1.3374056
-8.6565905 -0.92630351 -1.4134572
-4.3583288 1.8118024 -1.3424001
-10.737062 3.1214478 -0.76146007
-3.6865821 1.5076131 -1.3356876
-3.4034171 1.4146471 -1.3316712
-7.7358551 3.2720799 -1.3638403
-10.740088 3.122658 0.27970314
-3.9879541 1.6577615 -1.337111
-11.125743 0.084689572 0.020214967
-10.651119 3.7162287 0.28188598
-5.8924694 2.4498725 -1.3431984
-10.658965 3.7190728 0.54639721
-11.125055 0.084496364 1.058004
-9.0418682 3.8246522 -1.3615175
-10.678064 3.7259722 1.075043
-10.54704 4.4615083 -1.3185147
-8.3499956 -1.0671039 1.6013227
-2.6078749 1.1024631 -1.3310889
-5.6924438 0.95245516 -1.3547577
-2.9647713 1.2534628 -1.3351156
-3.3912578 1.4339105 -1.33032
-2.436789 1.0300831 -1.3198901
-4.3418756 1.8361088 -1.3407693
-5.2661486 2.2271655 -1.3424861
-4.7651472 2.0151925 -1.3428365
-7.686058 3.3032968 -1.3584051
-3.6632521 1.5489889 -1.3337985
-6.6976261 2.8328123 -1.3556486
-10.669602 3.7224689 -0.24218294
-3.9812815 1.6835437 -1.3383093
-5.8792076 2.4865482 -1.34363
-9.0287981 3.8805447 -1.3629212
-10.524829 4.5237188 -1.3190054
-2.6014905 1.1174324 -1.3310969
-2.9609046 1.271943 -1.3366605
-3.3881345 1.4556135 -1.3323736
-2.4554753 1.0546584 -1.3333205
-4.3259349 1.8587745 -1.3391378
-5.2478762 2.2551203 -1.3411281
-9.9942646 1.3136679 1.1971771
-4.7516918 2.0418074 -1.3423477
-7.6578684 3.3435259 -1.3568237
-3.6577621 1.5715261 -1.3350841
-6.6757889 2.868979 -1.3545676
-3.9627523 1.7026427 -1.3353578
-5.8683929 2.5218816 -1.3444735
-8.9845219 3.922935 -1.359647
-10.505891 4.5874081 -1.3199549
-2.5966783 1.1330874 -1.3319579
-2.9535387 1.2889421 -1.3366698
-3.3797035 1.4750701 -1.3323842
-2.4477301 1.0680346 -1.3324333
-4.3186922 1.8851649 -1.3402479
-5.2276726 2.2821584 -1.3393124
-4.7416353 2.0698819 -1.3428661
-10.912386 1.6301962 -1.0087457
-7.64151 3.3904777 -1.3574911
-10.640606 3.923188 -0.50859016
-10.976145 1.180317 -1.0092746
-6.6645679 2.9097073 -1.3556901
-10.638155 3.9225197 0.020066217
-3.9528892 1.7254047 -1.3353702
-11.106749 0.24705297 0.020211373
-10.624848 3.9177368 0.28288284
-5.8519859 2.554822 -1.3440791
-10.637599 3.9225752 0.54866385
-11.109499 0.21497911 1.0567001
-8.9665251 3.9785583 -1.3605022
-10.653326 3.9285767 1.0792477
-2.2637711 1.0037024 -1.3078555
-6.9158163 0.97123301 -0.9673444
-2.5915709 1.1491762 -1.3328191
-5.6606302 1.1016011 -1.3537087
-2.9390945 1.3034172 -1.3336078
-3.3657427 1.4927784 -1.3303521
-2.4429929 1.0832323 -1.3333362
-9.1321001 0.31076938 1.5180353
-4.3056798 1.9099456 -1.3397138
-10.701054 3.3848236 -0.76440424
-5.2104883 2.3115275 -1.3384135
-10.539515 4.5304775 -0.51477128
-5.5408335 -2.8330021 -0.13393134
-10.498468 4.6585026 -1.3225104
-3.6339548 1.6118174 -1.3331958
-8.950696 4.0333562 -1.3616325
-6.6292229 2.9411969 -1.3520401
-8.9618397 1.6898179 1.2984216
-3.9408441 1.748023 -1.3347905
-8.9613523 1.6897634 1.51499
-5.8349428 2.5886762 -1.3436856
-10.884572 1.7222078 -1.789333
-4.7204313 2.0940247 -1.3403643
-2.2853563 1.02903 -1.3237774
-2.5816197 1.1625643 -1.331122
-2.7545931 1.2213387 -1.3324029
-3.1223671 1.4063038 -1.3277085
-2.4301991 1.0943131 -1.3297646
-9.921999 2.1125872 1.2047055
-10.46604 4.7164083 -1.3218573
-4.1451592 1.2976228 -1.344732
-10.48771 4.7263298 -1.0527625
-10.501686 4.7327838 -0.78515089
-3.6263487 1.6334658 -1.3338451
-5.1935472 2.3398657 -1.3375144
-3.9324608 1.7714427 -1.3353961
-6.2646399 2.867732 -0.87384802
-4.2876034 1.9315188 -1.337535
-10.996342 1.1171851 -0.2363482
-10.622546 4.129643 0.55143833
-4.7012434 2.1179631 -1.338366
-6.9928474 -1.2852727 1.1245286
-10.903622 1.8239526 -0.23642686
-2.29529 1.0498934 -1.333147
-8.3757296 -0.69807762 1.5989597
-2.5730395 1.1770767 -1.330278
-7.0801315 1.8789697 -1.3651781
-2.736774 1.2520508 -1.3308001
-3.1156709 1.4255495 -1.3284438
-2.4285507 1.110914 -1.3324577
-10.721105 3.2889316 0.28038105
-2.850455 0.99398243 -1.3347236
-9.0368195 1.106963 1.2962886
-3.6417093 1.5895 -1.3325467
-10.879605 1.9193934 -1.7938467
-3.6183245 1.6557115 -1.3344947
-10.954083 1.3089041 -1.0086079
-5.1972818 2.3787131 -1.3421129
-3.9184155 1.7931236 -1.3342241
-8.936698 1.9029325 1.5179038
-4.2725773 1.9552932 -1.3364533
-10.970256 1.3108633 -0.23624985
-11.075905 0.50649738 0.79537469
-4.6974001 2.1498177 -1.3408993
-9.6719704 2.3870409 -1.3810418
-6.7442112 1.1283284 -1.1093709
-2.2860076 1.0615733 -1.3312825
-7.3892374 -1.2102638 -0.33518484
-2.7328429 1.2693002 -1.3324305
-3.1074176 1.4434375 -1.3284544
-2.4204988 1.1240962 -1.3315711
-6.3669882 1.7697147 -0.91536796
-10.687581 3.5192432 -0.76640326
-3.6035793 1.6740938 -1.3325952
-5.1693802 2.4020102 -1.3384659
-8.9357901 1.9027121 1.3007113
-3.9132285 1.8180437 -1.3360157
-4.2699742 1.983888 -1.339209
-5.8044176 2.6562114 -1.3437246
-2.2091241 1.04225 -1.3257393
-10.977807 1.3118038 0.79312992
-6.5838566 3.0365922 -1.3517284
-6.8322449 1.9426244 -1.3237324
-7.5484648 -1.1891032 -0.34209195
-8.8113308 -1.0201548 -0.81090975
-8.8498726 4.1458793 -1.355517
-3.8951497 1.8386173 -1.3336589
-3.0934939 1.4599705 -1.326292
-5.1458178 2.4293523 -1.3361949
-3.3413846 1.5407015 -1.3295292
-9.012291 1.3193101 1.2968411
-3.5847232 1.6919941 -1.329422
-10.842639 2.1095743 -1.7936321
-10.926043 1.5012783 -1.0083116
-0.55937964 0.1856619 -0.2872
-8.9146309 2.1177008 1.5221193
-10.946788 1.5041587 -0.23628648
-11.046256 0.73206109 0.79416686
-5.7546759 2.7169363 -1.3396381
-9.6137228 2.5315144 -1.378237
-2.0269332 0.97047365 -1.3239727
-10.947797 1.5043284 0.53537744
-2.2031031 1.0549284 -1.3257267
-10.954317 1.5052385 0.79321718
-6.5599031 3.0972676 -1.3524983
-5.4997969 1.5990355 -1.3445131
-3.8827813 1.8601632 -1.3330799
-3.0884049 1.4793417 -1.3277521
-10.612509 4.1252446 -0.51071382
-3.3137953 1.587394 -1.3276856
-3.5749271 1.7125797 -1.3294348
-4.2554426 2.0237758 -1.3403287
-5.744235 2.7525406 -1.3408967
-4.668685 2.2204282 -1.3419478
-2.1946154 1.0664072 -1.3243304
-5.1317492 2.4589171 -1.336213
-2.8916268 1.4054997 -1.3336688
-3.3029158 1.6055971 -1.3270164
-8.3833752 -1.0698829 -0.97226143
-3.8720126 1.8824611 -1.333094
-11.11922 0.084748499 -0.75702345
-3.0748134 1.4946257 -1.3255895
-10.663063 3.7199571 -0.76929265
-8.8016891 4.2494764 -1.355718
-3.5650134 1.7331071 -1.3294476
-6.3530893 -1.2692893 -0.28985783
-6.3266563 -1.2640758 -0.13765626
-6.4942904 0.31654397 -1.3682117
-9.2749128 -0.85550553 1.3258741
-4.2291803 2.056221 -1.3376102
-11.1758 -0.76519489 -1.5533413
-5.7142172 2.7786965 -1.3376153
-6.3738708 1.1050115 -1.3612621
-4.6302137 2.2513263 -1.3364347
-9.1858749 -0.091984935 1.307858
-2.1906347 1.0805515 -1.325743
-9.1846552 -0.092005759 1.5258892
-5.1192617 2.4892495 -1.3366896
-11.199965 -0.70236558 -0.50292981
-2.8782763 1.4201491 -1.3313758
-10.678529 3.5160859 -1.2939903
-3.2933381 1.6251359 -1.3270289
-9.0900402 0.60203177 1.2970555
-6.4638796 3.1203427 -1.3382111
-9.09764 0.57621831 1.5144571
-9.9019098 2.2600305 1.2060915
-5.4246531 -1.640413 -1.3311279
-5.1009159 2.517828 -1.3357927
-2.8221605 1.1058835 -1.3405135
-6.2590752 2.8201768 -1.2797225
-3.5529752 1.75336 -1.3288237
-9.8692179 2.4973476 1.2088655
-8.3466396 1.9052924 1.6288333
-9.7278204 3.2673571 1.2182882
-4.2186365 2.0820997 -1.3381745
-9.7157936 3.357945 1.2203746
-4.7378092 0.51017797 -1.3550689
-4.6202517 2.2804434 -1.3374591
-2.1828034 1.0923263 -1.324815
-5.4148445 -2.4851766 -1.3335183
-2.868407 1.4358431 -1.3306186
-6.1931009 1.7060927 -1.351894
-3.2856138 1.6448859 -1.3277223
-6.4590425 3.1885526 -1.3430214
-9.8873653 2.3485737 1.2067794
-10.589338 4.3325181 -0.51329428
-3.5445211 1.7746098 -1.3294743
-8.7087393 -1.0610971 0.42502782
-5.9709692 -1.3032179 -0.13035905
-3.8518491 1.9147518 -1.3319303
-7.3709965 0.64111239 -1.3787957
-8.7676582 -1.0685967 1.2572683
-4.2031441 2.1046069 -1.3370938
-8.7755327 -1.0696362 1.4684112
-8.2078018 2.518074 1.633208
-4.6208944 2.3139174 -1.3415042
-2.1778479 1.1060162 -1.3258005
-9.5849514 3.9223757 1.2292372
-2.3730505 1.2052741 -1.3280447
-5.2996531 -2.5915458 -1.3866009
-2.8631375 1.4544781 -1.3321657
-4.6144028 1.1099926 -1.3496575
-3.2724514 1.6626157 -1.3263729
-5.137598 -1.6866115 -1.2701275
-10.806749 2.3333538 -1.7952473
-3.5322475 1.794719 -1.3288509
-8.7085152 -1.061146 0.6293242
-3.831445 1.946858 -1.3307669
-4.1923046 2.1303487 -1.3376585
-8.5578566 -1.0931139 1.4330295
-7.1903791 1.5088263 -1.3692065
-4.589838 2.3324926 -1.3364875
-5.0735302 2.5595472 -1.3344475
-2.3692575 1.2205278 -1.3298436
-2.8530803 1.4700656 -1.3314089
-7.9842091 3.2952905 1.6427846
-3.2578154 1.6788187 -1.3243423
-3.5201755 1.8141322 -1.3282274
-6.4399195 -1.0919976 -1.3750019
-10.773376 2.9276581 1.0615014
-5.7581787 -1.4159133 -0.12650561
-3.8303635 1.974112 -1.3343385
-7.3007231 0.78537714 -1.3683336
-8.5531607 -1.0924345 1.227405
-4.1765556 2.1526639 -1.3365782
-4.5746145 2.3579695 -1.3360016
-5.0458431 2.6010144 -1.3331027
-2.4323561 1.2713588 -1.3288291
-2.845952 1.4877917 -1.3321885
-6.93083 2.2593317 -1.3586941
-3.2478051 1.698087 -1.3243555
-6.4160395 3.2371995 -1.3399365
-8.4646206 0.48654118 1.6131957
-5.0510292 2.6417053 -1.3386205
-2.7750893 1.3322341 -1.3319514
-10.547673 4.5341463 -0.24643895
-3.8101282 1.9923458 -1.3313901
-10.550692 4.5355744 0.020026628
-10.532707 4.5280075 0.28610006
-4.1603084 2.1755922 -1.3354985
-10.546904 4.5342851 0.55526459
-10.551157 4.5362325 0.82297224
-4.5468311 2.377862 -1.3319923
-10.542933 4.5328794 1.0905017
-10.469069 4.9047308 -1.3313442
-8.4228392 -0.30587709 1.6035482
-10.799809 2.7327256 1.0592823
-4.7334766 -2.4184668 -1.3811291
-2.8354511 1.5037537 -1.3314322
-7.4255552 3.7197499 -1.348821
-6.3566179 3.3249214 -1.3376125
-5.0163574 2.6615584 -1.3336023
-2.5874515 1.2942171 -1.329749
-0.71315622 0.32087019 -0.45807582
-0.61819994 0.23439139 -0.33391568
-7.8128319 4.1466756 -0.60274696
-10.912288 1.6945192 -0.49464092
-10.922092 1.6960478 -0.2363718
-4.1456351 2.1993055 -1.3349675
-6.8359985 0.7559818 -0.9526217
-5.7081633 2.8177226 -1.3401135
-9.5241756 2.7692144 -1.3750968
-10.92243 1.6961815 0.5354926
-6.7935324 1.5710676 -0.96591288
-7.3476419 -1.2030536 -1.2086393
-5.6320343 2.9037795 -1.3340704
-6.8920107 2.3811147 -1.3591079
-7.3657293 -1.2061757 -0.8585124
-6.3350487 3.3616266 -1.3372717
-10.1429 0.73231107 -1.4096804
-4.1346016 2.2240248 -1.3355327
-7.4047079 -0.48532543 -1.3830988
-5.0043812 2.6922188 -1.3345391
-0.66399419 0.29418224 -0.40262449
-10.92 1.6957486 0.02015077
-10.706243 3.2838671 -1.2888347
-10.815861 2.5352247 -0.23770349
-5.5662451 2.9946661 -1.3307539
-10.717718 3.2875578 -0.7634865
-7.9164877 2.8656254 -1.3668538
-6.3069353 3.3933678 -1.3354613
-10.720545 3.3227642 -0.24038772
-8.4466448 4.2308245 -1.3103808
-10.823743 2.537292 0.79736352
-7.5637722 4.1280422 -1.19523
-10.721101 3.3229969 0.020100653
-7.7762461 -1.1795911 0.5642848
-8.893218 2.305598 1.3078775
-3.5110376 1.8358334 -1.3288789
-8.8862371 2.3317113 1.526081
-10.807888 2.5331521 -1.2773738
-10.715824 3.2866004 -1.8203092
-8.788578 3.0957282 1.3262106
-8.7920837 3.0970461 1.5481857
-8.6165161 4.2540574 -1.3329206
-6.3285446 2.2912273 -0.93254411
-7.7084904 4.1478958 -1.2141936
-10.614103 4.1257319 -0.77590775
-7.7809181 -1.1803784 0.74850428
-7.7965879 0.49409962 -0.71362954
-6.4535666 0.69442701 -1.365858
-10.701856 3.3847053 -1.8229095
-9.2313757 -0.4984653 1.535732
-11.159263 -0.3062816 -1.2846355
-10.695242 3.3828003 -1.2910428
-9.134634 0.31088772 1.3013241
-8.6900549 3.9181235 1.356343
-8.2089472 4.2024283 -1.2791862
-8.6925764 3.9193988 1.5832613
-10.618283 4.1271076 -1.3114853
-11.236644 -1.070125 0.80935669
-5.961648 -1.3011137 -0.2729575
-4.5287752 2.4365225 -1.3350511
-6.2514935 1.5038509 -1.3530797
-5.5051565 -2.6134384 -0.84545064
-11.075693 0.40998295 -1.5366048
-6.824172 -1.2803239 -1.2943027
-4.8805523 1.7667676 -1.3470782
-6.3229971 3.4993324 -1.3476366
-10.487679 4.913166 -1.8816893
-6.2920208 2.402575 -0.93319774
-6.1114321 2.1319885 -0.59114754
-9.7985411 2.911746 1.2136981
-4.7922068 0.093665898 -1.3630832
-3.7687621 2.0703444 -1.3316437
-11.084971 -0.30344826 -1.5375464
-5.493557 -2.6865849 -1.2885177
-2.4439163 1.4076676 -1.3261737
-7.6817493 2.7307518 -1.3234923
-9.064271 0.89456433 1.2968543
-6.1455803 2.102988 -0.89981109
-8.2580023 2.3228807 1.6319616
-3.7203314 2.1438046 -1.3297253
-9.6366787 3.714304 1.2259381
-4.1104193 2.2583699 -1.3341886
-5.2689095 -2.6532373 -1.3866624
-4.6639996 0.90773654 -1.3512146
-2.4370914 1.4230235 -1.3270379
-6.04743 2.109411 -1.3479906
-6.2428808 3.5142236 -1.3360093
-10.496236 4.8055925 -0.51814973
-6.0858307 2.1833649 -0.59053081
-3.4610565 1.9275993 -1.3289459
-3.7075539 2.1658092 -1.3297426
-8.1157799 2.8592231 1.6367248
-10.449492 5.04532 -1.336347
-7.3978796 1.9178714 -1.058936
-4.9687786 2.7491739 -1.3336658
-7.2938795 3.8153911 -1.3369172
-6.4802437 -0.69254965 -1.3717344
-10.707187 3.4915237 1.0706229
-7.2830172 1.1310699 -1.3734881
-7.2310667 -1.2707698 1.3966351
-8.0901079 2.9569516 1.6383655
-4.9230289 2.8185868 -1.3323462
-9.4664049 4.3011994 1.2339458
-5.4602289 3.1474562 -1.3270773
-7.1477509 1.8079584 -0.67346495
-4.4753914 1.5169678 -1.3439109
-7.4506502 -1.2207272 0.54169667
-10.726916 3.3251724 1.0676854
-7.2253399 -1.2478086 0.69741291
-7.1704483 -1.2598608 0.86460221
-9.0674753 -0.99714667 -0.40858564
-7.8357954 3.7004409 1.6479226
-9.1004782 -1.0009328 0.016682375
-8.4590025 0.88485646 1.6182538
-10.502544 4.8086386 -0.24809128
-10.626348 4.1312456 0.81716764
-10.506749 4.8107214 0.020001117
-10.627453 4.1318011 1.0836985
-10.504101 4.8464932 0.55934668
-10.506671 4.8478355 0.82897425
-10.508041 4.8486333 1.0995086
-8.4382877 0.089088559 1.6055855
-10.781377 2.6936595 -1.8045765
-3.2162857 1.754388 -1.3239875
-10.614273 4.1262965 0.28438655
-3.6983144 2.1890411 -1.3309455
-10.230296 0.28849253 -1.4187509
-8.8571529 -1.0256195 -0.39934194
-6.7358856 2.732384 -1.3550471
-7.4473877 -0.07401073 -1.3880495
-10.48599 4.9131427 -0.51982522
-10.489583 4.9149799 -0.24886045
-10.969479 1.3107734 0.020166628
-10.493772 4.9171124 0.019997887
-10.485066 4.913208 0.28874102
-10.492699 4.956037 0.56102353
-4.0611343 2.3404973 -1.3335394
-8.7759857 -1.0159044 -1.2247257
-5.5333567 3.0407271 -1.3293449
-10.488895 4.9544053 0.83098614
-4.4632139 2.5379264 -1.3330147
-10.493808 4.9568915 1.102569
-6.1957207 3.6937885 -1.345314
-10.769675 2.8922174 -1.8108847
-3.1492083 1.8765764 -1.3250009
-10.879447 2.0839376 0.79458773
-10.771045 2.9267519 0.020115353
-5.2897177 2.1636038 -1.3418434
-10.773278 2.9274991 0.54061216
-6.5485649 3.9832911 -1.2450628
-10.775616 2.9282024 0.80079222
-8.836153 2.710731 1.3156463
-8.8380795 2.7114003 1.5355504
-10.867527 2.0814557 -0.49567342
-10.737095 2.9172277 -1.017485
-8.7360077 3.5159402 1.340113
-8.7383575 3.5169923 1.5642461
-9.4027805 3.0653296 -1.3712108
-10.767286 2.9256587 -0.23884653
-9.8370638 2.7044137 1.2114033
-6.6939363 4.0175471 -1.2681619
-4.3640814 2.6882997 -1.3309387
-7.3695316 3.9240518 -1.3561468
-10.752611 3.1265411 1.0646594
-6.9851885 4.0541711 -1.3119334
-2.1560526 1.0011616 -1.3268147
-10.514274 4.555274 -1.0485678
-8.5916862 4.2423763 -0.42990336
-10.54282 4.5317621 -0.78209466
-8.5786114 4.2360644 -0.20531829
-11.195731 -0.70187443 -1.2909926
-8.5697956 4.231854 0.01670121
-8.5420227 4.2182808 0.23775934
-7.9881411 4.1787581 -1.2504678
-8.5328932 4.2139153 0.46029836
-8.5299416 4.2125998 0.68169123
-10.652645 3.7161572 -1.2986448
-8.656209 4.211555 1.1423423
-8.6496029 4.2084842 1.3684802
-8.6470804 4.2074013 1.5965292
-10.47665 5.0581203 -1.8902751
-6.2268105 2.4625821 -0.92782104
-8.1832952 4.1612244 0.87232959
-10.795505 2.5300775 -1.8005283
-8.1840982 4.1617775 1.0895182
-8.157568 4.1484294 1.301967
-8.149518 4.1444802 1.5178785
-6.0852785 3.7743661 -1.3355771
-3.1501238 1.353144 -1.3292723
-5.1810093 -1.6844121 -0.88429922
-8.2540255 4.1964731 -0.1987125
-5.9706421 -1.4127336 0.87347931
-3.3610437 2.0835271 -1.3266836
-8.2344999 4.1866879 0.016139403
-8.2230167 4.1809926 0.23021613
-8.205267 4.1721106 0.44521579
-8.2009382 4.1700525 0.65923667
-10.511666 4.7011185 -0.51679111
-5.2863531 3.3855062 -1.3220013
-8.1786947 4.1874642 -0.41224134
-3.9640939 2.4738464 -1.3295504
-6.0195093 3.8558259 -1.3333884
-7.9449196 4.1567292 -0.40229136
-3.6226938 2.3051195 -1.3300974
-4.7443037 3.0781674 -1.3285393
-5.973855 -1.3042492 0.72630268
-5.9641285 -1.2960939 0.89303535
-8.1591654 2.7138438 1.6356606
-9.5295353 4.0972533 1.2311115
-7.9565802 -1.1112376 -1.3042413
-6.0960979 1.9872048 -1.3493865
-8.0139217 -1.1194129 -0.93083376
-7.8513136 -1.1428534 -0.72519857
-7.9957619 4.124404 1.493627
-2.92483 1.3379661 -1.3341392
-5.9725876 -1.303815 0.51016086
-7.1450224 1.6967747 -1.3686199
-7.8250208 -1.1387891 -1.2837119
-7.9231091 3.461587 1.6443479
-8.0229473 4.1379924 0.85775524
-8.0205564 4.1369042 1.0708919
-8.001564 4.1272521 1.2808295
-7.8001204 4.1400733 -0.39619815
-4.3012567 2.790313 -1.3313144
-9.7564697 3.1186371 1.2161032
-3.295176 2.1789987 -1.3253355
-7.990243 4.150497 0.22469665
-7.9762812 4.1433949 0.43472385
-7.9740067 4.1423631 0.64385927
-7.8097324 4.1161804 0.83882076
-7.7963753 4.1092753 1.0457764
-7.7789125 4.1002121 1.2509522
-5.340786 3.7225709 -1.2143072
-7.772047 4.0967593 1.4585587
-7.7325935 4.0470481 1.659439
-7.7920198 4.1359186 -0.18932
-10.521749 4.7062292 0.55739528
-7.7849483 4.132309 0.015387212
-7.7701521 4.1245985 0.21952388
-3.8782575 2.5811958 -1.3256048
-7.759943 4.1193233 0.42490578
-7.7579288 4.1183987 0.62933749
-5.8557196 3.8738477 -1.3096479
-5.6252575 -1.4542471 0.89629346
-4.8495932 2.9294095 -1.3308347
-5.3499842 3.2963808 -1.3233252
-4.2029028 2.9047234 -1.3268988
-10.58927 4.3328815 0.28561851
-9.255661 -0.68944401 1.3212316
-7.610055 4.0685291 1.640725
-7.3969545 -1.2116073 -0.16011071
-7.5114784 4.1002316 -0.18366206
-7.5781183 4.1073976 0.01504116
-7.6265602 4.1048222 0.21612656
-7.6182423 4.1004891 0.41842616
-7.6181564 4.1005878 0.61989564
-7.5911388 4.0861878 0.81913286
-4.6704683 3.1678696 -1.3257869
-7.5861645 4.0836568 1.0223107
-6.213192 3.9542272 -1.1963372
-7.5666924 4.0733185 1.222484
-7.5639687 4.0719981 1.4261107
-7.5963383 4.1169553 -0.4875651
-7.5840378 4.1104107 -0.2853401
-9.2342129 -1.0161275 1.3223463
-8.7666368 3.3204823 1.5568554
-9.4651394 2.9332576 -1.3738675
-10.791647 2.7303448 -0.2382362
-10.907241 1.8246391 0.53573793
-6.8755102 1.6550698 -0.97968036
-3.7787902 2.7106156 -1.3235418
-7.5050097 -1.1818613 -1.2333423
-6.7912979 2.5483363 -1.3520864
-7.4407301 -0.26208112 -1.3876606
-5.3168564 3.8156691 -1.2207494
-7.4146242 -0.33391851 -1.3833342
-2.5988436 1.5072738 -1.3290669
-10.49257 4.8043852 0.28782958
-10.891295 1.9551178 0.79374808
-4.5794744 3.2854142 -1.3242704
-8.7661133 3.3202059 1.3340753
-3.5303137 2.4392848 -1.3291944
-10.796066 2.7315261 0.020123281
-3.7731378 1.3034298 -1.3387809
-10.79705 2.731899 0.53937572
-10.801368 2.7330718 0.79908073
-5.237546 3.8045914 -1.2075514
-5.7779465 -0.89258802 -1.3728389
-6.2956104 0.60306114 -1.1782078
-2.3705525 1.5173212 -1.3239065
-2.9897802 2.1046703 -1.3219191
-3.2039826 2.2979307 -1.3231379
-7.0178938 4.0461969 -0.55203938
-10.768674 2.7246535 -1.0157628
-5.9838209 3.9087579 -0.32074603
-5.9876146 3.9113424 -0.15357813
-5.9670753 3.8981712 0.094962046
-5.9576521 3.8922265 0.34404764
-5.9985533 3.8935113 0.51226997
-5.9924936 3.8897376 0.67866766
-6.8059721 4.0300975 -1.2848353
-6.0140829 3.8873196 0.90553987
-6.0317822 3.882097 1.1336031
-6.0017338 3.8713429 1.3577129
-5.0008354 3.722981 -1.3133503
-5.7891331 -0.65277195 -1.3678224
-2.449244 1.7236837 -1.325012
-5.9918947 3.9138501 -0.48776776
-7.9835167 4.176486 -1.0373008
-4.7685194 3.7490823 -1.2778857
-10.740754 3.0883439 -1.8149519
-3.4408045 2.5296948 -1.3230573
-4.1101551 3.0223656 -1.3250059
-4.4939613 3.3877015 -1.3223521
-6.3709602 3.9779656 -1.2200663
-10.749818 3.1253858 0.02011428
-2.3924589 1.1628475 -1.3273019
-4.0371027 3.1168082 -1.3248211
-10.750077 3.1256263 0.54206735
-10.751719 3.1261923 0.80292588
-5.8077841 -0.48281217 -1.3682619
-2.3821435 1.8761647 -1.324172
-8.7162752 3.7171874 1.3483957
-8.7178068 3.7179506 1.5737844
-7.9890604 2.6993968 -1.369032
-10.747348 3.1245999 -0.23965006
-10.849921 2.3100169 0.7956937
-5.2532606 3.4972861 -1.3291892
-8.4152794 4.215693 -0.42228025
-6.6104193 3.9945421 -0.52635366
-10.718621 3.0821996 -1.0199643
-5.346632 3.7196646 -0.44387436
-4.3980184 3.4995179 -1.3208776
-6.3971128 3.9684253 -0.51303828
-7.4083605 4.0728779 0.60573238
-7.388793 4.0622501 0.8011449
-7.3859911 4.060863 1.0001396
-7.3662376 4.0501509 1.1958449
-7.430584 4.0572276 1.4054605
-7.4169264 4.0499177 1.6067051
-2.4022179 1.3190368 -1.3269397
-10.72815 3.2911966 0.54328614
-10.726081 3.3248484 0.80519617
-5.8188305 -0.29594848 -1.3678275
-2.3943224 2.094079 -1.3206626
-9.161664 0.096615717 1.3044636
-6.5833044 4.0045795 -1.0688322
-7.4152145 4.0764871 0.40923572
-6.5721436 3.9979393 -0.88564759
-7.2188635 4.0501957 -1.3445666
-3.1228006 2.410054 -1.32366
-3.6151299 2.9107425 -1.3212239
-4.7241297 3.8969147 -1.2903047
-4.7012062 3.9953122 -1.2999936
-4.6925554 3.9187434 -0.27468747
-4.6965694 3.9456398 -0.13207708
-4.6890669 3.9489059 0.095470034
-4.6951084 3.9682078 0.29678825
-4.696537 3.9776809 0.53617567
-4.6980362 3.9712205 0.72934854
-4.6898413 3.9644606 0.87297916
-4.6846485 3.9840932 1.0202509
-10.706107 3.4910722 0.80737734
-5.8194723 -0.10819063 -1.366411
-2.4422321 2.3329217 -1.3107295
-6.691864 4.0164547 -1.0825678
-4.6925135 3.9055307 -0.4955135
-6.687727 4.0141225 -0.89799815
-3.3450201 2.6448867 -1.3212043
-4.6125898 4.6250963 0.92793804
-7.2084522 4.0725322 -0.56420642
-10.599063 4.3373218 1.0883315
-2.3658724 2.3967955 -1.3069646
-7.2225256 4.0531988 0.40052825
-5.2397404 3.7224603 -1.3230754
-5.1067305 3.8021996 -0.50836205
-4.2920713 3.603682 -1.3171153
-5.2201853 3.8163402 -0.44078818
-7.03405 4.0291209 0.39201403
-4.6700745 4.1037354 0.090379409
-4.6779966 4.0974011 0.30011281
-4.6818933 4.1010861 0.51794434
-4.6820459 4.1015215 0.73788148
-4.6737957 4.0944891 0.8832041
-3.8362141 3.3376315 -1.3211356
-7.4111414 -1.2362419 1.2480757
-4.6843691 4.1040006 1.1082946
-8.5254803 -1.0887382 0.81737578
-7.959281 4.1640983 -0.61212832
-10.463835 5.0532498 0.28968158
-2.3369536 2.423171 -1.306523
-8.0175495 4.1643953 -0.19388634
-5.8161726 -1.4307959 0.92399549
-4.6706047 4.1145978 -0.27986568
-4.6780128 4.0968804 -0.13404317
-4.5869703 4.8214059 0.94518679
-2.3092127 2.451334 -1.3070489
-3.0198407 2.5046914 -1.3168881
-3.5142348 3.0217664 -1.3193318
-4.19244 3.7131224 -1.3164542
-4.6674175 4.111515 -0.49705499
-3.2545571 2.7484074 -1.319966
-2.8181391 2.3094695 -1.3176469
-4.6452055 4.3145518 -0.28524911
-4.6534252 4.297298 -0.13673963
-4.6469746 4.302743 0.075551324
-4.6533031 4.2977805 0.30550534
-4.6586514 4.30302 0.52756125
-4.6593628 4.3040075 0.75175875
-4.6513443 4.2967758 0.89988858
-4.6646967 4.2903104 1.1084143
-4.6599598 4.3815088 1.2150524
-9.2073679 -0.28016046 1.3114332
-5.7826757 0.29900759 -1.3592545
-2.463263 2.6460702 -1.3077046
-5.2052174 3.8278193 -1.04963
-4.6427574 4.3119726 -0.50654382
-5.1994619 3.8237481 -0.89532751
-10.467422 5.0544934 -0.52188134
-4.5630188 5.0247703 0.96383131
-5.7830153 3.8751614 -0.47444734
-2.4191391 2.6916163 -1.3091377
-4.5542831 5.0753336 0.96827906
-2.4011087 2.7026598 -1.3077976
-10.524934 4.7079592 1.095518
-8.4134455 4.1852751 1.1151059
-4.5542355 5.1343317 0.8935014
-2.3808451 2.7130008 -1.3057772
-5.3671885 3.7114689 0.31549141
-8.3959637 4.1767259 1.3340974
-5.3662062 3.7110305 0.46735874
-4.6285315 4.505373 -0.13964882
-4.62432 4.5015693 0.085024387
-4.6293802 4.5068421 0.31139904
-4.6364517 4.4983702 0.49177045
-4.6304998 4.5196438 0.70105976
-4.6266479 4.5050416 0.91750276
-4.5469713 5.1896529 0.89814186
-4.6288042 4.5073442 1.0713973
-4.6415348 4.5199628 1.2305982
-6.6118479 3.9952569 -0.70685983
-4.8265982 3.7726648 -0.4891575
-3.7347875 3.446579 -1.3204886
-6.5951233 3.9854519 -0.34576285
-6.6053476 3.9917748 -0.1656809
-8.3799534 4.1984229 0.23391366
-4.6282845 4.5036101 -1.2055687
-6.3550901 3.9431002 0.36162284
-4.622304 4.4832463 -0.46970299
-4.6221495 4.4989276 -0.29040316
-3.4169021 3.115936 -1.3166589
-4.599185 4.6917276 -0.2959981
-7.218832 4.0245323 1.5713795
-2.916846 2.6128843 -1.3143623
-3.1505508 2.8560128 -1.3178356
-4.5337057 5.2972083 0.90753859
-4.6183605 4.7136469 1.2532743
-7.2239923 1.317934 -1.3684617
-2.4989951 2.9848397 -1.3073062
-7.1691256 4.0238094 1.1694894
-9.2304401 -0.96104699 -1.2865932
-2.7129495 2.4155264 -1.3134878
-10.58951 4.2968664 -0.7787326
-4.5989132 4.6920133 0.086349621
-4.6051664 4.6987543 0.31691206
-4.6136999 4.7076979 0.47098738
-4.6081486 4.7023883 0.70213848
-4.6008911 4.7227058 0.93656421
-10.5171 4.7039995 0.28741193
-4.5169725 5.4036007 0.99972671
-4.6038713 4.6986127 1.0906812
-4.0063105 3.8976967 -1.3141941
-2.1822953 1.4976619 -1.3214648
-10.592606 4.334003 -0.24556337
-10.697674 3.5928962 0.80905503
