# .PCD v0.7 - Point Cloud Data file format
VERSION 0.7
FIELDS x y z
SIZE 4 4 4
TYPE F F F
COUNT 1 1 1
WIDTH 1465
HEIGHT 1
VIEWPOINT 0 0 0 1 0 0 0
POINTS 1465
DATA ascii
1.4428489 -1.3402691 -1.2078798
1.3622832 -1.9043435 -1.1877141
1.3612802 -2.1149116 -1.1813798
7.36305 -2.7300441 1.6485659
2.7563267 -1.7678032 -1.0955024
6.0164838 -2.6524935 1.0583565
6.0604486 -2.6876619 0.49183092
5.9799657 -2.6001635 1.54635
4.4680963 -2.9368863 1.2182748
7.2166066 -2.7488739 0.85350895
4.4823861 -2.7596343 1.2426615
5.7923245 -2.5833943 1.5058302
4.4815292 -2.7430944 1.4019365
5.7737126 -2.5706036 1.6657029
8.5133429 -4.1783528 1.0779452
7.3395653 -2.5142224 0.091526024
7.2187214 -2.7438796 1.0433915
7.2000504 -2.7309148 1.2309003
7.3603802 -2.515224 0.28166637
2.5028334 -1.7257507 -1.1115723
1.1638229 -1.8964731 -1.2055998
2.6219313 -1.9901234 -1.0952591
1.1502557 -2.1031859 -1.1974277
7.172164 -2.708493 1.6108644
33.991486 -5.1538963 3.6426086
7.2619047 -2.7836473 0.29016814
7.1817021 -2.519794 -0.27857861
7.0603075 -2.7394629 0.83776271
5.6173549 -2.5705092 1.468454
7.1710505 -2.5100598 -0.094235815
5.5934391 -2.5553257 1.6227219
7.1450467 -2.4949305 0.089136682
7.0498424 -2.7297599 1.0222756
14.774915 -0.70102704 -0.28664318
7.1583476 -2.4936302 0.27449587
7.0243168 -2.7141893 1.2047393
2.3774233 -1.7448888 -1.1226394
0.96318835 -1.8900412 -1.2226193
2.3533754 -1.9521648 -1.1121513
0.95221561 -2.0890551 -1.2127122
7.0123372 -2.6981158 1.5801191
6.4505835 1.6664555 1.0256066
6.9344387 -2.5044155 -0.27026221
5.4433169 -2.5519533 1.430675
8.2789001 -4.0073118 0.8180021
5.4281869 -2.5408015 1.583358
6.9005055 -2.4807463 0.086466752
6.8814135 -2.7137322 1.0010859
16.519949 0.71681464 1.1824031
6.9063411 -2.4771116 0.265991
2.1981213 -1.748497 -1.1383258
0.77183968 -1.9217721 -1.2360202
0.77795786 -2.0682857 -1.2229728
6.7736707 -2.6783378 1.533843
6.8674288 -2.7027314 1.1817062
16.572929 0.73959124 1.5837438
6.9402056 -2.775147 -0.26563457
2.1300342 -1.9284993 -1.1355299
23.123327 -4.2151604 1.9468296
5.2234631 -2.5287929 1.459267
6.8260083 -1.7495891 -0.80132985
6.9025564 -1.0433915 -0.82196379
6.8101997 -1.7461169 -0.79974163
6.037818 1.691309 0.64534676
23.033663 -4.1755471 2.4985003
2.0006986 -1.7330579 -1.1552978
0.65808368 -1.9741319 -1.237994
5.3880157 0.54352021 -0.99502933
7.7458167 -3.9312744 0.5632236
5.0177183 -2.5061414 1.4861944
28.965553 -4.7074537 3.8169165
9.4188318 -2.2658374 -0.60130477
9.2924089 -2.9637039 -0.5802722
11.466757 0.64326 -0.5720582
11.537416 -0.082054168 -0.53687871
1.7798011 -1.7427235 -1.1662462
5.0455194 -2.5182672 1.2968564
4.4736614 -3.8039088 0.094563358
4.7973347 -2.5358307 0.40336737
4.1963806 -3.7384357 -0.74326748
4.203433 -3.7432711 -0.53449148
4.1843324 -3.7257237 -0.32540408
1.5811617 -1.7063458 -1.1798149
4.2628736 -3.0298748 -0.77034485
4.7893209 -2.5268943 0.60549736
4.7948647 -2.5063453 0.80818021
4.7678156 -2.5061727 1.0106779
4.8313313 -2.4940975 1.2994727
4.5874863 -2.5060658 1.3904017
4.5886598 -2.5712647 0.386244
16.855764 -2.1828258 3.4201906
4.5787416 -2.5577431 0.64053643
4.6662841 -2.5041459 0.82486141
15.785181 0.7870214 1.1229081
4.5983167 -2.4915984 1.0494409
1.3772407 -1.7029868 -1.1969035
4.6153331 -2.4767504 1.2539027
16.449818 -3.5776091 1.8114047
4.4306111 -3.3290834 1.2660974
1.182622 -1.6986219 -1.2123475
2.5137868 -2.3607388 -0.90156132
4.4919291 -2.5734336 1.2421314
4.4843073 -2.5910959 1.3799157
4.4252892 -3.3225775 1.4815005
9.2436733 -1.719412 2.3918924
11.398727 1.2559766 2.4456646
4.5247378 -2.56866 0.8457793
4.5126848 -2.5763571 1.0583428
4.4498825 -3.1296394 1.241432
5.0711393 1.7587926 -0.78891826
11.813364 -3.1155548 2.5241301
10.369358 -2.3819396 2.4517417
14.7932 -1.3240618 -0.25841132
1.0326424 -1.7460171 -1.2213582
11.852149 -3.1369884 2.2299314
4.3717961 -1.0466981 -1.0098983
8.9258213 -2.5336421 2.3955059
14.813178 -2.1376472 -0.22413775
2.3298662 -2.3441434 -0.89249617
10.304074 -2.9165103 2.2195859
15.781448 -3.5483174 1.3537527
4.9359994 1.8472584 0.63738
2.1201963 -2.3276994 -1.0944681
2.1289108 -2.3298204 -0.91992009
15.841064 -3.5769365 0.97291064
22.91444 0.20165153 0.61316437
11.494353 -3.1377144 1.5848846
28.872772 -0.37058839 2.8677166
15.802492 -3.5829756 0.58619261
7.107873 -2.7917345 -0.27101651
10.788458 1.1903104 0.98526859
6.8499188 -1.5566086 -0.80621356
1.9454257 -2.3345213 -1.1073681
1.9302132 -2.3108985 -0.92440873
-0.30342132 0.13282862 -0.069635607
11.413531 -3.0838027 2.445282
6.7095232 -2.3464856 -0.78724909
11.556303 -0.01440613 -0.54101133
11.437838 -3.1116266 1.8652894
11.592564 -0.78327382 -0.50629508
-0.67115617 -2.1200602 -1.3005799
9.992609 -2.9591837 2.1645577
-2.2664089 -1.9148403 -0.5688526
1.7642207 -2.3084536 -1.1277382
-0.30342132 0.13282862 -0.069635607
7.7623525 -3.7922196 0.55699736
3.750829 -0.21996734 -1.0906346
9.3574972 -2.8290703 -0.58626938
9.2489662 -2.7576923 -0.34720114
11.065157 -3.0717702 2.0932405
1.7318747 -2.2916639 -0.94353414
5.22995 -1.6889572 -0.9113518
6.6984425 -2.7487359 -0.25796333
-0.6355294 -2.091182 -1.2390424
17.143278 -2.8763857 3.100673
11.033417 -3.0526869 2.3702991
9.6814318 -2.9311495 2.1031435
17.080574 -3.5620654 3.1409883
30.962923 -1.6596578 3.8819737
1.5529809 -2.2924206 -1.1468362
30.895489 -2.3977201 3.9152558
1.5497065 -2.2727413 -0.94203901
3.6446278 -1.0054795 -1.065771
7.5242348 -3.6814625 0.3358852
6.1675296 3.2605901 0.61760837
-0.83725566 -2.0800357 -1.2785443
6.474164 -2.7257817 -0.25086823
1.5172 -2.2646718 -0.75803864
-1.4731507 -1.8515005 -1.387565
4.8572469 -0.86519909 -0.97924328
15.086526 -3.4829419 1.297541
8.7371283 -4.3476324 1.349555
4.7017379 -1.6326445 -0.95912552
7.5093284 -3.787977 0.33974484
1.3392313 -2.2831953 -1.1476181
15.103956 -3.5153871 0.56202686
1.3321109 -2.2533953 -0.96089256
1.3310554 -2.2468665 -0.75369138
17.090263 -3.4522734 3.1342642
6.1326132 -2.8765674 -0.23783916
4.3790588 -3.8842487 1.263741
1.1263995 -2.2304351 -0.78487206
-1.6342995 -1.772812 -1.4008971
-1.0445604 -2.0618219 -1.2924426
4.4465036 -3.1242063 1.4537047
8.5008135 -4.3335142 1.0879459
43.703682 -4.0128403 4.5433626
4.3727989 -3.8776112 1.4888647
1.1479661 -2.2675233 -1.1524873
4.4812031 -3.1572595 0.83041835
4.4743047 -3.1494777 1.0377512
1.1373241 -2.2372816 -0.97618192
6.3298936 -2.712575 -0.24631259
-2.3545368 -1.9087785 -0.62070858
4.3948317 -3.7303395 1.2442962
10.353692 -2.993494 1.437088
-1.8108208 -1.7530237 -1.417437
4.4061503 -0.83947492 -1.0157796
9.0032816 -2.3455036 2.394325
14.822442 -1.9131879 -0.23354688
7.0103841 -3.6278119 -0.06635759
0.95536047 -2.2407725 -1.1648933
0.95023531 -2.2209923 -0.97850645
10.326412 -2.9762528 1.6954195
10.32515 -2.9664814 1.9611793
0.93133348 -2.2107008 -0.77930069
-2.1244457 -1.219083 -1.4565741
-0.30342132 0.13282862 -0.069635607
-1.2362878 -2.0237343 -1.3203503
4.5590091 -2.7713993 0.33559963
0.73230225 -2.1887596 -0.80423003
-2.0063179 -1.7594543 -1.4308901
8.2569332 -4.2473416 0.83114517
14.454299 -3.4271994 1.2466236
22.893692 0.36276105 1.1444358
4.2199726 -1.6612475 -0.9969902
0.75258285 -2.2209845 -1.1870947
0.74279338 -2.2045426 -1.0058743
14.464394 -3.4566128 0.54003114
-2.4691663 -1.8993224 -0.5675149
9.8205767 1.3397478 0.8820253
-1.4366543 -2.0022521 -1.3331113
4.4113064 -3.525553 1.282901
11.580544 -0.57221913 -0.51528484
0.55116433 -2.2096267 -1.1844712
0.54399103 -2.1853192 -1.0050557
0.52813107 -2.1696289 -0.80070722
10.025683 -2.9781384 1.9124081
-2.2267427 -1.749473 -1.4466125
6.7349725 -2.1728556 -0.78964925
10.063709 -3.0075617 1.4031781
2.6442914 -0.96326935 -1.1422217
10.007998 -2.9818134 1.6502829
2.2830594 2.0228806 -0.14158431
-3.6780603 -1.7646426 0.15882069
6.7630777 -3.5050576 -0.25095192
2.4508877 -2.3180656 0.28746381
-2.235811 -1.0427455 -1.4732529
-3.7701924 -1.7555268 0.1660105
-2.4348526 -1.7527612 -1.4596082
-2.6644814 -1.8832783 -0.6072278
-1.6225679 -1.983518 -1.3512813
4.666656 2.7811821 -1.137187
9.7567377 -2.9802742 1.3643003
0.35258019 -2.1936967 -1.2029247
-2.2423089 -1.0308508 -1.4742036
0.3421551 -2.1669478 -1.0219682
0.33301502 -2.1527486 -0.82853335
9.707572 -2.9478457 1.8570158
-3.8060062 -1.7445942 0.21221587
9.6907425 -2.9252672 2.3588767
5.0562825 -2.2970357 -0.90136385
4.5178299 1.9594365 -1.1248356
6.7702131 -3.3279164 -0.25282022
-2.2021637 -1.1384373 -1.4679735
-3.9022365 -1.7400831 0.16199681
-2.3960342 -1.0332257 -1.4880667
0.1433259 -2.1406727 -0.81680441
-3.9587162 -1.6932585 0.16407555
-2.425139 -1.5396315 -1.4653331
6.4613862 -2.7154822 -0.080120541
6.4486394 -2.7052176 0.089884333
-1.8294106 -1.9705206 -1.3575686
6.461699 -2.7057602 0.26187286
2.2600365 -2.3023376 0.27301833
0.36897957 -2.0817688 -1.2502689
2.2640183 -2.2836809 0.48436394
6.4383378 -2.6811755 0.77380085
2.2509754 -2.2789342 0.69036162
2.2398877 -2.2685108 0.85928154
-2.8621633 -1.8635243 -0.59980214
6.4293613 -2.6724794 0.94445586
0.11465806 -2.1249104 -0.81725651
6.7619963 -3.4010479 -0.25184891
2.0515089 -2.2691071 0.48015919
2.0606625 -2.2596438 0.67686158
0.15719011 -2.1812379 -1.2107159
6.3354387 -2.7101865 -0.078792997
-2.0434258 -1.9680291 -1.3638422
6.2541842 -2.6880884 0.25461286
2.0673025 -2.2847762 0.25845599
4.4150639 -3.7480786 1.1023834
-3.0098042 -1.7156497 -1.5006127
-3.0711904 -1.8462687 -0.61135644
6.11797 -2.8653629 -0.072918989
4.490922 -2.9550571 1.0175216
-0.23516284 -2.1521699 -1.2703773
9.4561605 -2.9512355 1.3260906
4.4615979 -2.9291682 1.4261272
4.4405522 -3.7723482 0.66953003
-0.21244913 -2.1206725 -0.9350909
4.4245944 -3.7575634 0.88419199
4.3880811 -3.7231205 1.4660699
4.4979491 -2.9630535 0.81361496
12.011777 1.1115972 0.24355209
1.8761473 -2.2678797 0.24411538
-0.02623269 -2.1616971 -1.2484844
1.6764562 -2.2522495 0.22941226
4.4505424 -3.7821894 0.45332906
-3.9557252 -1.6018475 0.16555491
7.1095243 -2.8036535 -0.64352536
-1.8194342 -1.5761962 -1.4203755
7.0953856 -2.7812223 -0.086067356
4.2234659 -2.9940696 -0.18334338
7.0807629 -2.7698929 0.098097645
17.298841 -0.66084468 3.4073384
-3.2740226 -1.7244035 -1.5139791
7.0162716 -3.5230858 -0.068456091
7.1106877 -2.7984929 -0.45779243
4.2282562 -3.0002511 -0.37667456
8.8930902 -2.877346 1.7160405
-3.2629216 -1.8326048 -0.63715655
-2.4157774 -1.9327532 -1.3934416
17.318602 -0.50336266 3.4020159
-2.0040948 -1.5529739 -1.4389722
8.8702822 -2.8621237 1.9437213
-3.3317113 -1.6256166 -1.5226492
-4.4903755 -1.6974683 0.069359995
4.2602029 -1.4806598 -0.99765217
6.9626694 -2.7951026 -0.63218546
6.9506187 -2.7848001 -0.44901475
10.813886 -1.5920311 2.4811745
8.2670641 -4.1258006 0.82440406
1.4774203 -2.2319407 0.21460149
2.851536 -1.583748 -1.0965019
6.9055958 -2.7504785 0.095790468
15.721865 0.84445906 2.2505093
0.18818367 -2.1325243 -1.2613868
1.7386868 -2.2831712 -0.73553705
1.2646878 -2.1875341 0.61800689
-2.2185268 -1.9533237 -1.3791546
1.2783456 -2.22031 0.010168821
13.170112 -3.4187493 -0.15091541
6.6739306 -2.7283792 0.092836253
1.2637818 -2.1994236 0.43852642
9.5412025 0.093204379 2.3339999
-3.6063118 -1.6864282 -1.539374
6.6647553 -2.5390251 -0.78371775
2.4369664 -2.3049364 0.49143246
-3.4655466 -1.8135234 -0.61793768
2.4115179 -2.2960229 0.67381394
-3.6696897 -1.796877 -0.64610428
2.3985562 -2.2838376 0.86281192
-2.2148333 -1.5450325 -1.45465
4.486362 -3.3802688 0.43224117
6.6885371 -2.7395113 -0.082208075
1.05515 -2.1695306 0.59965611
11.582356 -1.7712928 -0.46613571
-3.6832039 -1.5001112 -1.5485435
23.172636 -4.2471657 1.3945566
1.0783534 -2.1939545 0.21753886
-4.6903877 -1.6845019 0.076569401
-3.8874722 -1.6552159 -1.065833
-3.9212956 -1.6351012 -0.69228518
-3.9453275 -1.6176627 -0.31431746
-0.85749072 -2.0457211 -0.88705498
2.4673173 -2.334228 -0.099882521
6.5223079 -3.2851224 -0.4244397
5.1734681 -1.8847595 -0.90649319
11.966125 1.1237375 0.52813208
11.945755 1.1378738 0.81310844
-2.3847826 -1.3505561 -1.4735318
-3.9302466 -1.631157 -0.50568384
0.86761934 -2.1624148 0.41677144
2.2931986 -2.3199618 -0.098545022
0.85928196 -2.1540868 0.56904316
-3.8401904 -1.4653543 -1.5172232
-3.9192946 -1.6488297 -0.88605487
-3.9475925 -1.6816599 -1.1428303
4.8191967 -2.551955 0.20339122
-2.553113 -1.3273911 -1.477506
-2.6393626 -1.5282789 -1.4787427
6.3116689 -2.69526 0.088210098
0.68049252 -2.1582744 0.18965039
-1.255985 -2.0127432 -0.92050064
4.9150023 -2.5741637 -0.52404177
-0.094850868 -2.1288843 -1.1863276
-4.9072223 -1.667588 0.059467427
4.8316302 -2.5429182 0.067800961
-3.8628602 -1.7723902 -0.6875661
7.3566675 -2.7215126 1.8457239
0.69302094 -2.1662595 -0.016519591
0.29324836 -2.1292691 -0.031692371
0.67099851 -2.1443377 0.39158335
4.846427 -2.5553803 -0.13407925
4.7066126 -2.5652003 -0.17055285
4.6215916 -2.5837138 0.0012313351
4.6075034 -2.5908737 0.19809398
-2.7558074 -1.3205086 -1.4920115
-3.0273552 -1.8937298 -1.4219775
7.1793656 -2.7052784 1.8069153
-1.4428625 -2.0095456 -1.1147741
0.46859741 -2.1214538 0.39603469
-1.078734 -2.0135221 -0.51165825
4.7296386 -2.5867596 -0.57174921
17.280424 -0.86787927 3.4160988
6.0888329 -2.706955 0.25018981
-0.2518875 -2.1139665 -1.1887473
4.4783483 -3.3718157 0.64090306
4.4632406 -3.3582077 0.84813082
-5.1085124 -1.6469704 0.054377221
4.4532604 -3.3482819 1.0584364
-2.6053207 -1.7194097 -1.4768664
-3.2176669 -1.8640605 -1.4386225
-1.6360319 -1.9928299 -1.1433711
-1.6663787 -1.9726743 -0.74334025
0.26465189 -2.1024582 0.51641899
4.504868 -3.3963952 0.22566199
-4.4293737 -1.4355329 -1.6033812
-2.7794278 -1.698082 -1.4902871
-2.976265 -1.3078772 -1.5078238
-1.6510613 -1.9808401 -0.94187438
0.28414214 -2.1231697 0.1585964
0.27038729 -2.1028345 0.38077816
-1.274276 -1.9949747 -0.51144892
11.906454 -3.1953371 1.0411737
-3.2077253 -1.3051385 -1.5224645
-1.8477335 -1.9702049 -1.1376985
0.066596568 -2.0868127 0.49404165
-0.44499746 -2.1056154 -1.2281297
4.28092 -2.6145761 -0.18504208
11.855887 -3.1707125 1.3337563
6.841496 -2.6758564 1.7332647
0.10087749 -2.1116562 -0.039997645
0.072341263 -2.0859718 0.35837731
4.2893429 -2.6232719 -0.37309846
0.67899263 2.1743722 0.16938868
-5.2818155 -1.6329648 0.12717709
-2.0402536 -1.9528354 -1.1572186
7.3382459 -2.7084043 2.0428021
4.1288581 -1.8984023 -0.99172747
9.554821 0.2692672 2.3280816
-3.4496827 -1.3028924 -1.5322555
11.529956 -2.1572104 -0.4505969
-2.0596659 -1.9391934 -0.76901269
-0.12171079 -2.0704675 0.34635296
-1.4770777 -1.9808747 -0.53152698
-3.4929171 -1.1984944 -1.5400896
-4.6534266 -1.7063795 -0.73308378
-2.2647309 -1.9233805 -0.76117426
-0.31709903 -2.058955 0.33559784
-0.33320767 -2.0502131 0.45736745
-4.9324245 -1.4008797 -1.6530319
2.5715601 -1.1578432 -1.1380215
-2.0208707 -1.3600225 -1.4444445
10.818073 1.1639597 0.46541157
11.607709 -1.5615212 -0.47494778
-0.30903292 -2.0692699 0.12895229
7.1545992 -2.6898453 1.9979904
6.5254626 -3.1884329 -0.42455122
-3.7960455 -1.2788273 -1.5275296
-4.6336956 -1.7181264 -0.89871144
-0.52499342 -2.0391603 0.44621101
-3.9787986 -1.5963503 0.34724981
6.990819 -2.6781912 1.9586651
-2.8729849 -1.5309777 -1.4983723
9.4842997 -1.4451019 -0.62833822
0.029209673 -2.0851181 -0.043579385
-0.49156004 -2.0637493 -0.01876238
-0.48545766 -2.058269 0.11458003
-2.3688087 -0.7410233 -1.4931295
-3.9790993 -1.5856074 0.48970804
-2.6297054 -1.9051503 -1.202064
-2.6558564 -1.8958341 -0.98575389
-5.3279185 -1.6219482 0.42674467
-2.650305 -1.8918601 -0.79943025
-3.9538829 -1.614186 -0.073404312
4.4608946 -3.9357324 0.2438713
-2.1959572 -1.3431804 -1.4630256
6.4075894 -2.6584456 1.1134179
-5.3264432 -1.623778 0.25116491
1.7546766 -1.9152762 -1.1650866
4.4594235 -3.9353323 0.09708821
-1.6668205 -1.9630672 -0.53001517
-1.0661352 -2.0271668 -0.71077126
-2.4302211 -0.54894066 -1.5055248
-1.0887485 -2.0124671 -0.29611886
-1.0984051 -2.0041077 -0.11013284
-1.1099756 -1.9974114 0.077806048
-5.2853513 -1.6265508 0.0037463829
-1.0430372 -2.0427496 -1.0876554
-1.1211066 -1.9862529 0.29034916
-1.0556102 -2.0267766 -0.88672042
-1.127265 -1.9909903 0.42828929
4.4748378 -3.780268 0.23874149
-2.7156866 -1.8530856 0.19677395
-1.8741925 -1.9473745 -0.53815186
-2.5121057 -1.8711041 0.19795653
-2.0718939 -1.9310981 -0.57084125
-2.9183698 -1.8334287 0.19873044
-0.30342132 0.13282862 -0.069635607
-3.6414368 -0.5788213 -1.569366
4.2435837 -3.0136232 -0.57128567
-1.2874969 -1.9961702 -0.31443244
-1.2975733 -1.9874035 -0.12180527
-0.30342132 0.13282862 -0.069635607
-1.3093216 -1.9803625 0.065661721
-5.5027242 -1.6068953 0.051818334
-3.6468213 -0.55955231 -1.5713638
-5.0336123 -1.6706897 -0.76328486
-3.1088781 -1.8163712 0.18592629
-2.527077 -1.859833 0.4066129
-0.30342132 0.13282862 -0.069635607
-3.6540978 -0.53940916 -1.5742356
-2.3861458 -1.1514267 -1.484935
-5.7078052 -1.5846366 0.049992226
-0.13658254 -2.0615647 0.28509507
-6.1024771 -1.5571244 -0.0076349452
-5.6716862 -1.6198485 -0.99585795
-4.827486 -1.6244547 -1.627885
1.924221 -2.2976887 -0.73390317
-1.895021 -1.938764 -0.16996565
-5.0714436 -1.6554472 -0.34897932
-1.7171314 -1.936731 0.25570324
-4.1930327 -0.94167042 -1.6063039
-5.8177352 -1.5801778 0.5366528
-0.057859361 -2.125474 -1.0565889
-0.30342132 0.13282862 -0.069635607
-3.6556642 -0.51934683 -1.5746133
-5.8901381 -1.5671877 -0.0052734092
1.3089118 -2.2327213 -0.3682119
-4.2372217 -0.64323163 -1.6174576
-3.3060746 -1.7955064 0.15804198
-1.4650483 -1.9894389 -0.71679837
-1.481868 -1.9792572 -0.33218774
-1.50826 -1.9630028 0.058477722
-0.30342132 0.13282862 -0.069635607
-3.6553159 -0.49894652 -1.5741777
-15.198354 -2.4215102 -2.5091381
-4.8476453 -1.7049396 -0.90995222
-6.4618163 -1.5253136 -0.012491353
-2.252836 -1.9344715 -0.959539
1.1099105 -2.2142518 -0.38501513
-4.2522993 -0.59841239 -1.6231105
-0.30342132 0.13282862 -0.069635607
-3.65674 -0.4783015 -1.5745776
-4.8267889 -1.7308686 -1.3846681
0.49392301 -2.1469951 -0.025236182
-3.328038 -1.7952017 0.54460013
1.6845195 -2.2596788 0.048725486
-2.8093908 -1.1100068 -1.504445
-2.9019895 -1.8418123 -0.029936202
-2.9275541 -1.8228621 0.39091706
1.3229544 -2.2333734 -0.55926871
-3.0264454 -1.1083021 -1.5185784
-4.8726325 -1.71003 -1.2743635
-4.8817649 -1.5054317 -1.6402259
-6.3431244 -1.6098419 -1.4965217
-3.5038202 -1.7774332 0.16732514
-0.30342132 0.13282862 -0.069635607
-3.4532864 -0.40735868 -1.5734872
1.7105281 -2.270921 -0.54856253
-15.23551 -2.1994259 -2.5227907
8.8409872 -2.7475817 2.3986051
-3.6920638 -1.7808883 -0.29255888
-2.7468424 -0.91755128 -1.5057863
-0.051210076 -2.1133983 -0.61034995
-0.091300949 -2.0973794 -0.23499343
-2.2600992 -0.98669875 -1.4744997
-0.11339745 -2.0834925 0.13043198
-0.12972789 -2.0672481 0.4739745
-6.1947131 -0.83023798 -1.7664858
-6.2701383 -1.5489572 -0.58964217
-6.3306651 -1.537305 -0.15728381
-6.2594962 -1.5366566 0.13375574
-2.8319862 -1.9060632 -1.4211304
-2.0443466 -1.9510266 -0.96902519
-15.309998 -1.9491922 -0.40364072
-3.4392641 -0.50235748 -1.5684967
-2.0937579 -1.9214166 -0.18663934
-6.1737738 -0.77267385 -1.7613831
-3.2088182 -1.1070666 -1.5323014
-6.0877261 -1.5530328 -0.19533321
-15.293859 -1.8591715 -0.40803596
-6.7043123 -1.6010532 -1.7452989
0.12019432 -2.1218281 -0.44553891
-0.33587617 -2.0476832 0.31461635
6.6110954 -2.6558838 1.6831691
-2.7817461 -0.69835734 -1.5172923
0.30316669 -2.138339 -0.22337463
-0.092383802 -2.1086471 -0.66481304
-0.14436863 -2.0827401 -0.15516047
-0.024501175 -2.0715232 0.21433231
-2.386389 -0.92544305 -1.4913642
-5.7975368 -1.6400158 -1.5098522
-3.434294 -1.8473164 -1.252357
-5.8281994 -1.6220521 -1.3751198
9.4982996 -0.31491438 2.3472493
-5.8309746 -1.6129773 -0.9555338
-5.1222672 -1.6443622 0.43875876
2.4658918 -2.345279 -0.28172719
-3.5278428 -1.0903492 -1.5459251
-15.378213 -2.2112992 -0.03395424
-0.049771607 -2.1102531 -0.46616375
-2.7385106 -0.53706527 -1.5208664
-15.343057 -2.3146691 -1.0948422
-1.5403125 -1.9501451 0.41882801
-4.8896613 -1.7346418 -1.527444
-4.1539688 -1.055964 -1.5956757
-0.51003969 -2.0517225 -0.086035348
-5.1326671 -1.587018 0.48249695
1.062072 -2.1802881 0.43909541
-2.7373116 -0.32469389 -1.5281249
-0.28217053 -2.1004694 -0.47965339
-15.334828 -2.1304989 -1.1029733
1.2990365 -2.230042 -0.17220348
1.276181 -2.2126412 0.22130865
-2.9378819 -0.91062748 -1.5217221
2.7971838 -0.57411158 -1.1457663
-5.5055127 -1.2938203 -1.7028605
-5.831933 -1.5944706 -0.40861735
-0.48526385 -2.0920386 -0.49097973
6.149529 -2.8910863 -0.48824403
-2.7283781 -0.18360406 -1.5416427
-0.6551069 -2.0831745 -0.50350004
-15.279537 -1.9214872 -0.7561304
-6.240099 -1.5500019 -0.73150051
-3.1348875 -0.90498602 -1.5336231
-15.451224 -2.2933469 0.327153
-6.4806509 -1.5299308 -0.61103296
-15.127918 -1.2450148 -2.5403314
-2.7621787 -0.13941017 -1.540446
2.3147748 -2.3317835 -0.70053196
-2.2845151 -1.9032975 -0.19224057
-15.129166 -1.1559719 -2.5442448
-0.096680075 -2.094677 -0.43532953
-15.275438 -1.6716349 -1.1204947
-0.71200037 2.2905457 0.080478214
0.57422429 -2.0646143 -1.2379162
-3.4279144 -1.8715407 -1.458571
-3.5889859 -0.88305902 -1.5583544
2.1360323 -2.316438 -0.71871924
-5.6557703 -1.6088481 -0.39475742
-3.6422889 -1.8231877 -1.2361245
-3.8022568 -0.74639452 -0.72115672
4.4379091 -3.9148078 0.46032307
-3.3557289 -0.89762247 -1.5484288
-3.5279465 -1.7766808 0.52215487
1.8860831 -2.2774801 0.055186555
-3.8700597 -0.69417179 0.29784042
0.26038897 -2.0803885 0.28850892
-15.236641 -2.5170841 -2.5125706
4.3978796 -3.9012551 1.1194289
-3.7312908 -1.7565798 0.53547913
-1.5122495 -1.9508804 0.27985224
-15.252334 -1.4902817 -1.127533
-4.8410296 -1.719296 -1.1464474
-4.8439116 -1.6908228 -0.73408967
-3.8830111 -0.3400676 0.44242325
-5.0762463 -1.665279 -0.46900022
-2.9985266 -0.70766628 -1.5335959
-4.9368744 -1.6780466 -0.92646015
-5.4015708 -1.5975083 -1.6775813
-12.488747 -1.8997108 -2.3631926
-4.8999343 -1.6877558 -1.0385376
-3.3846695 -1.5012134 -1.5279578
-0.70392978 -2.0372314 -0.084069252
-3.7996244 -0.8580848 -1.5317688
-5.5511637 -0.79759431 -1.7159663
6.6458025 -2.6910412 0.97145963
-5.0485344 -1.661322 -0.55559844
-6.1818867 -1.6002618 -1.458415
-6.256259 -1.5545962 -0.44230792
-6.3064861 -1.5397525 -0.010365479
-3.7956107 -0.67429352 -1.4965839
-0.28592384 -2.0795081 -0.4431873
-3.9018514 -0.70143759 0.47603062
-15.231949 -2.3357768 -2.5176203
-5.468091 -1.4002966 -1.6931612
-15.307081 -1.3007363 -0.08528278
-3.8595173 -0.7053299 0.083344601
-0.48478127 -2.0619943 -0.4507103
-3.2448437 -1.8488735 -1.0144463
-3.3072956 -1.0542328 -1.5391846
-3.4043996 -0.69131339 -1.558654
-15.350353 -1.9135734 0.30218104
-0.89881176 -2.0201974 -0.095337391
-15.328623 -1.8901039 0.65338844
-0.68574178 -2.0467303 -0.47018367
-3.4514182 -1.8303664 -1.0522881
-0.87999034 -2.031338 -0.49120227
4.4111285 -3.9039721 0.91274035
-15.147614 -0.37725559 -1.1746404
-3.8659976 -0.59983361 0.082339011
-3.8795941 -0.58907676 0.28230664
-3.9008565 -0.57444561 0.45546666
-3.8348086 -0.63495088 -0.72979456
-4.4871941 -1.7616745 -1.4088089
-3.322418 -1.7933723 0.37299526
-3.1909044 -0.70524955 -1.5456694
-4.3916388 -1.7626723 -1.3122331
0.70850486 -2.1755991 -0.39740309
0.89399987 -2.1860957 -0.0097709149
-5.222404 -1.6779926 -1.2972931
22.629614 -4.0274549 0.81181502
-5.2512708 -1.6550328 -0.90970135
-4.4539742 -1.7334363 -0.89234376
-4.6433015 -1.7482319 -1.2955213
-4.5529752 -1.0838847 -1.632472
-4.6851916 -1.7045391 -0.31810239
-4.6313891 -0.23921683 -1.6612259
7.0863051 -2.766453 0.28396741
-2.9607012 -0.50644815 -1.538959
-0.4446241 -2.0769083 -0.26442757
-6.6278687 -1.5699526 -1.5641025
-0.74854958 -2.0367484 0.27873185
7.0038457 -2.6890726 1.7685277
10.494495 1.2347711 -0.062282659
-4.9032421 -1.6854417 -0.33514604
-15.379189 -1.8554522 1.3666933
-4.4340529 -1.75403 -1.0910424
-6.9548345 -1.08692 -1.8148085
-3.8809814 -1.6682646 -1.2761519
-3.2061937 -0.49076781 -1.5558455
-3.7451687 -0.45439914 -1.5516397
-4.0627627 -0.49335083 -1.5484855
-3.459125 -1.823511 -0.83434242
-3.8431151 0.029606216 0.41214481
-5.2497644 -1.6461486 -0.57927269
-15.116045 -0.20003033 -1.1811836
-3.8470407 0.17473339 0.40478304
2.0841541 -2.2935424 0.058138601
-7.0219088 0.19583485 -1.8784295
-6.9648519 -0.92602718 -1.8203843
-3.8466899 0.23711374 0.40169075
-7.0209036 0.23497231 -1.8803747
-2.451982 -1.9159836 -1.174968
-5.5543542 -0.43035421 -1.7236284
-3.849802 -0.62007642 -0.34573802
-3.8588018 -0.6088866 -0.13490289
-3.8338246 -0.62724602 -0.5141446
1.7059789 -2.2762094 -0.34960294
-2.8430929 -1.8797635 -1.008418
-3.0497117 -1.863649 -1.0126075
1.6928148 -2.2673728 -0.13280693
-2.119946 -1.9017071 0.25820348
-7.0475926 -0.30795395 -1.8611517
-2.315783 -1.8859943 0.22723353
-2.4478972 -0.36650017 -1.5005763
-4.3563352 -1.6325375 -1.59006
-3.8425093 -0.45146254 -0.56410629
1.6631274 -2.2389534 0.44671211
-3.9593925 -1.1611847 0.49234596
1.6478434 -2.223264 0.66568965
-3.8795958 -0.3525753 -0.14981103
4.4348812 -3.5559888 1.0812076
0.30851591 -2.1361728 -0.41960517
-3.8535559 -0.17672676 0.016096644
-5.7959967 -1.6111702 -1.0874705
-3.8739748 -0.17012432 0.42891392
0.51865768 -2.1565089 -0.4136546
-5.8850808 -1.5930879 -0.6873886
-3.8189452 -0.19536781 -0.55227798
-5.8544741 -1.5925235 -0.54731405
-3.9510429 -1.0021989 0.43324575
-0.91833037 0.10961533 -0.43730909
-3.8568943 -0.18559468 -0.15031764
-5.8480921 -1.5858738 -0.20782754
-15.181 0.064274505 0.53457457
-2.5614586 -0.2135261 -1.5302052
-15.1999 -1.7436045 -2.5330021
-4.6331072 0.07370308 -1.6747057
-2.8552215 -1.8761433 -0.79596364
-3.8653231 -1.7812597 -0.87816739
-7.0040293 -0.12463045 -1.8573694
-3.833853 -0.75720716 -0.51861167
-2.9161372 -0.11218506 -1.5518247
-3.0900154 -0.1069174 -1.5655295
-3.4751041 -0.091538429 -1.5875969
-15.197865 -1.5644671 -2.5394793
-3.9031522 -1.7509371 -0.068916924
-3.9284122 -1.722939 0.36160418
0.32404268 -2.1462083 -0.62192261
-5.329443 -1.6346723 -0.12097885
-7.0099897 0.055415601 -1.8677114
-5.1867967 -1.665761 -0.35715494
-3.7461953 -0.75699556 -0.91809762
-13.992326 1.7987553 -2.5090234
0.90858656 -2.1955187 -0.37734571
-3.1059084 0.061773039 -1.5803092
6.1072221 -2.8516653 0.25675836
-3.4706621 0.10960175 -1.5945476
-2.925854 0.0066738725 -1.5606573
-3.2611265 -0.2903724 -1.5675727
-5.2382607 -1.6345333 -0.11816907
-3.8297787 0.019182749 0.032457598
-3.7720916 0.09996029 0.15357506
-7.0459046 0.15439308 -1.8825849
-3.7983727 0.047218002 -0.66292995
-4.4666867 -1.3231499 -1.6107177
-3.0375717 -1.8772091 -1.2295336
-15.15161 -1.3799878 -2.5388842
-0.91629887 0.18096972 -0.42300925
-3.0440238 -1.8583128 -0.81483644
-3.8039711 0.72436166 0.21240863
-0.90282238 0.22028874 -0.4399991
-15.284938 -2.4823859 -1.7983479
-3.7859781 0.74306655 0.21048054
1.9343131 -1.9108764 -1.153914
-15.118631 -0.97892439 -2.5500107
-3.4721067 0.31081423 -1.6096056
-0.97196746 0.23532888 -0.46214536
1.846297 -2.2388418 0.77993596
-3.7805567 0.76261485 0.20927507
-3.8119159 -0.010564834 -0.54188323
-15.179327 0.14954737 0.53012294
-0.88556665 0.22458214 -0.43982315
-2.4582353 -1.9069475 -0.78546029
2.0506539 -2.2548115 0.82077706
-4.6571431 -1.7351778 -1.1046062
-3.7787874 0.78346837 0.20885921
-12.507395 -1.9027778 -2.3666728
-0.5178144 -2.0488329 0.28921238
-1.91991 -1.9200448 0.2564483
-0.91431999 0.23336945 -0.44880635
-4.5782413 0.62767673 -1.694716
-3.77144 0.80155003 0.16609991
-3.7734456 0.1765434 -0.54544306
-0.93399578 0.23977298 -0.48163775
-5.4637675 -1.6129102 -0.12639531
-3.7528291 0.81906343 0.16407284
-0.92799711 -2.0060527 0.43067184
-12.512026 -1.680395 -2.3743651
-15.085691 -0.75575602 -2.55423
-0.92460865 0.24291158 -0.45642757
-15.281782 -2.3470652 -1.8033419
-3.7605417 0.84015465 0.12314636
-15.06504 -0.57911849 -2.5587804
-2.7974572 -0.12841853 -1.5617011
-0.9050855 0.24236415 -0.46458659
-15.001093 2.0750611 0.78401005
1.4508548 -2.2046328 0.63140047
-15.055153 -0.40217647 -2.565429
1.8950462 -2.2859893 -0.13483649
-6.6486239 -1.5051949 -0.16876653
-1.2694546 -2.0061109 -0.7114321
-3.6879568 -1.7765367 -0.060312346
-3.7670109 0.87287939 0.12264764
-3.4315078 0.50844312 -1.6095406
-3.8569069 0.50821459 -1.5136375
-0.88207495 0.2455487 -0.45076308
-6.9116945 -1.4599733 0.61588341
-3.8034511 0.21708789 0.026723973
-3.8120866 0.24312115 0.20366672
-12.495316 -0.90761459 -2.3989849
-14.129257 0.53500271 -2.4554598
-3.7733915 0.17094478 -0.73651671
-4.4701529 -1.7225933 -0.66968054
-4.4957409 -1.7103014 -0.46513242
-4.5529332 0.75493765 -1.6979351
-4.5066996 -1.6990364 -0.1374065
-3.7954152 0.63395858 0.38056377
-3.8428173 -1.7937115 -1.2785536
-7.933733 0.99161506 -1.9859399
-3.8864756 -1.7622962 -0.49461088
-4.480474 -1.7063507 -0.30281654
-2.699399 -1.8603057 -0.021725811
-6.0258617 -1.6105084 -1.4216137
-6.013392 -1.5771093 -0.42302594
-3.8286612 0.28449264 0.3971301
-3.0402653 0.52210546 -1.5870582
-3.6927643 0.48123679 -0.96052372
6.6841946 -2.7273986 0.26975456
-7.9145546 1.1030231 -1.9897795
-0.71983445 -2.0186901 0.30334267
-3.7892976 -0.77679062 -1.3025413
0.086718768 -2.1029222 -0.42456502
6.5928216 -2.6431208 1.8625106
-3.7257278 0.56595123 -0.75243664
-7.7644262 1.6101372 -1.9959502
-3.7874544 0.82385373 0.37564203
6.2683206 -3.0229578 -0.75147724
-0.52811313 -2.0322762 0.31802475
-7.8509026 1.302255 -1.9902949
-3.7919335 -0.66144001 -1.3045287
-2.6979499 0.57190514 -1.5630152
-0.84653324 -2.0590639 -1.1064488
-0.91836482 -2.003974 0.29555878
-3.7225478 0.23179337 -1.1898504
-4.5060182 0.95847273 -1.7030963
-0.86369032 -2.0436671 -0.68468434
-7.7344251 1.7206367 -1.998893
-3.7555876 0.99731755 0.36954585
-12.492948 -1.4923487 -2.3768182
-7.7793336 1.498063 -1.9896232
-2.2817621 -1.9073812 -0.377076
-4.9072461 0.93945682 -1.7245818
-9.8006182 -0.0098186731 -2.1446815
1.9012256 -2.2970076 -0.33387902
-3.4058819 0.62988544 -1.6115767
-13.865758 2.8176703 -2.5594847
-4.2803264 -1.7274756 -1.5706674
6.1559997 -2.8779454 -0.73815757
0.12408191 -2.1321259 -0.63707423
-5.5525513 -0.19307509 -1.730993
-11.150294 2.9834208 -2.3864772
-7.6923361 1.8967201 -2.0055668
-3.7676418 1.0866188 0.37066123
-5.4021897 -1.6437566 -0.37422213
-5.0071888 -0.62160957 -1.6686271
-2.2359457 -1.9361728 -1.1663283
-6.5042305 -1.4977076 0.58533663
-2.3020406 -1.8934983 0.015312307
-11.114985 3.045609 -2.3852749
-3.7714577 1.1102575 0.37110913
-15.424267 -2.4441104 -0.020623781
-3.0261371 -1.5246657 -1.5095178
4.4059987 -3.5445187 1.4897232
4.5045667 -2.7443445 1.0496287
-6.8204136 1.2556739 -1.9019669
-5.4915428 -1.6226902 -0.38183481
-5.0301523 -0.43803135 -1.6793523
-3.6898818 -1.7880155 -0.46974078
-9.0769529 2.4304521 -2.1636598
-3.7100418 -1.7596617 0.34884843
-14.739491 4.0903635 0.012445234
-3.7314665 0.37122864 -0.75196141
-3.6865237 0.47090513 -1.1735361
-3.1370192 0.68663132 -1.5979153
-1.3203673 -1.9679185 0.28573549
-14.704081 3.4721782 -1.695776
-9.7574844 0.35692054 -2.1548693
4.511066 -2.751924 0.86202091
-14.650745 4.0751438 -1.0290879
-7.6166959 2.0884848 -2.0067015
-5.0264802 -0.2238341 -1.6841067
-5.1333113 -1.6361024 0.24545163
-9.010335 2.5526938 -2.1611791
6.6571383 -2.7008288 0.79622209
-14.685068 3.7814157 -1.7131764
-4.4660296 1.159103 -1.7135313
0.14180106 -2.1184161 -0.63723564
-6.7732916 1.434764 -1.9061749
-6.8387103 -1.4574878 0.37282518
2.1077585 -2.3161898 -0.32068005
-3.3644338 0.71916497 -1.6126196
4.1992788 -3.1768868 -0.1833345
11.597979 -0.9575367 -0.49894282
-14.697993 3.8918495 -1.3697903
-8.9538698 2.7335165 -2.1669943
-0.88719225 -2.0303481 -0.27824968
-14.970163 2.1564686 0.77915847
-2.6722312 0.68038404 -1.5672624
-7.0009217 -0.52601123 -1.8407137
-3.3323925 0.90562999 -1.6173669
-2.1092951 -1.9097861 0.032486051
-14.605103 4.5870986 -1.7569079
7.7598424 -2.8176558 -0.69426775
-8.8928204 2.8259606 -2.1633952
-2.5016406 -1.8783196 -0.013551675
-2.8515475 0.56350768 -1.5715106
-3.7160666 0.70056129 -0.77957892
-7.4901562 2.3568263 -2.0051017
-6.7443919 1.4621652 -1.901113
-14.599415 4.0803342 -1.7236793
-14.652615 4.0613112 -1.3760605
2.2912171 -2.3324454 -0.30740327
-7.5475149 2.2568445 -2.0078547
-2.3385699 -1.8765787 0.41104519
0.7273944 -2.1816058 -0.60714591
-6.70191 1.6543547 -1.9092371
-5.5040383 -1.6002743 0.4277775
1.5066664 -2.2551239 -0.34447643
-3.7023067 0.23760965 -0.9465493
-9.6434221 1.2494457 -2.1875863
-2.9358461 0.88466239 -1.5909245
-2.8867478 0.69633055 -1.5806086
-14.633912 4.2701793 -1.7392125
-4.355639 1.462559 -1.7172186
-3.7835162 0.62480718 0.19996715
0.51793855 -2.162267 -0.60477471
0.50153428 -2.1561258 -0.21633479
-2.3895288 0.69219768 -1.5470018
-4.2660422 -0.60060215 -1.6285397
-2.8939471 0.98521376 -1.5893401
-5.8782325 -1.5633355 0.17567018
-3.6165481 1.1258422 -1.5914319
-3.9574585 -0.53150713 -0.18568072
-5.9511094 -1.5668557 0.54622865
-7.4270692 2.4786484 -2.0038111
-6.6251235 1.8578393 -1.9108022
-5.5170159 -1.5909427 0.4481726
-12.493993 -1.3098465 -2.3834009
-11.254413 2.6654327 -2.3789527
-3.1246581 0.89539909 -1.6040243
-5.9314113 -1.5521868 0.40543696
-3.7682149 0.59707022 -0.19804707
-3.7573094 0.60445976 0.0081582889
-5.6264534 -1.6628772 -1.3280287
-3.746155 0.57815748 -0.5602656
-3.757102 0.58676589 -0.39771882
-1.4491541 -1.9980325 -0.91100276
4.651834 -2.5903168 -0.39387742
-0.86893445 0.11654688 -0.42505839
-5.6667409 -1.6032259 -0.17665282
-5.6578684 -1.5820928 0.25955883
-14.636588 5.0187268 -0.36906382
-5.6474071 -1.6154078 -0.61406761
-12.422101 -1.3002582 -2.369765
-5.4569707 -1.670632 -1.3332536
-14.896162 -0.0080030859 -2.5577042
0.47280848 -2.1204984 0.53485435
-3.1020665 -1.8248566 -0.033590205
-2.8377018 -1.8903347 -1.1939228
-3.7427933 0.79989541 0.00040816516
-3.7750363 0.90672636 0.12224232
-15.178745 0.10002908 1.2297139
-11.206385 2.8601406 -2.3864028
-4.2705016 -0.4460195 -1.6308104
-2.3470023 0.83823979 -1.5556563
-3.7196624 0.77213216 -0.56917953
-3.0576594 -1.8386759 -0.42194846
-2.87391 -1.8550199 -0.40862921
-3.7346759 0.77238619 -0.40162513
-3.0922461 -1.8339275 -0.23923677
-3.7486534 0.79258752 -0.20362347
-3.5994971 1.4352982 -1.5907874
-2.3274744 0.9305805 -1.5686244
-5.5333652 0.18393849 -1.743135
-2.8892107 -1.8493571 -0.21914548
-5.5147052 -0.599581 -1.7072213
-3.5946798 1.4566275 -1.5929499
-0.85856456 0.18291591 -0.42030481
-6.9199648 0.90922236 -1.899183
-2.3178322 0.94080842 -1.5655683
4.6436448 -2.5408936 -0.85540295
-9.6283855 1.3595668 -2.1924145
-15.291965 -2.1449807 -1.4564738
-2.9300203 -1.8262544 0.50938165
-4.0907383 1.1478357 -1.6826223
-3.5891039 1.4770058 -1.5947466
-2.3124058 0.95354509 -1.5659318
-2.4895627 0.88314879 -1.5600843
-3.2215881 1.2804245 -1.6236613
-3.7071314 0.92436361 -0.75207633
2.1043265 -2.3060727 -0.51209486
-12.489525 -1.0888522 -2.3907275
-4.2996612 -1.7605345 -1.5226846
2.1688552 -1.2006879 -1.164207
-2.4947548 1.0083622 -1.5657185
-2.8623338 1.0887361 -1.5963156
-9.8124113 -0.20792496 -2.1376009
-3.5747504 1.505163 -1.643533
-4.2098808 1.7916468 -1.7209432
-4.2743192 0.13224868 -1.6515507
0.48534077 -2.1404216 0.17220727
2.3122845 -2.3237619 -0.51873761
2.5006125 -2.3455021 -0.50077897
-3.878619 1.6480404 -1.6859689
-3.613786 1.4702691 -0.9977228
-3.630033 1.4900045 -0.81266624
-3.6488304 1.4959385 -0.613989
-3.6595323 1.5053076 -0.44454584
-3.6682229 1.5122108 -0.24996403
-4.9923306 2.1313648 -1.7851155
-2.4547346 1.0462182 -1.5634938
-3.6750939 1.5240514 -0.021463208
-5.5816531 2.3866847 -1.8530326
-3.6778331 1.5284158 0.22016689
-3.0498357 1.26922 -1.6143298
-3.5809262 1.54347 -1.653703
-3.7123687 1.5507257 0.3680788
-4.2180066 1.8240764 -1.7295992
-5.4543962 0.80395305 -1.763594
-3.4403195 1.3089153 -1.6137146
-4.9743152 2.1581826 -1.7840092
-3.8196507 1.6491108 -1.6642905
-3.528105 1.4744745 -1.1990962
-3.582145 1.5143658 -0.60690951
-4.5117054 1.9543045 -1.7332029
-3.5857043 1.5206623 -0.43916541
-6.3122907 2.7520554 -1.7785022
-3.6405571 1.5207599 -0.036060549
-3.1441474 1.3706744 -1.6224303
-3.6228998 1.5862601 -1.62833
0.40483111 -2.0876713 0.30098441
-4.5024042 1.9797081 -1.7345612
-9.4416838 1.9803327 -2.201565
-5.003726 2.20384 -1.8000835
-2.4712915 1.0742162 -1.5681995
-13.479021 4.7247901 -2.6529629
-3.1365333 1.3874409 -1.622884
-3.5870392 1.5937506 -1.6165899
-2.6789885 1.0762619 -1.5797449
-2.5457375 -0.52228403 -1.5091286
-4.5502577 1.9248477 -1.7406458
0.1449874 2.2287474 0.24934965
-3.8127127 1.6983527 -1.5667604
-15.3855 -2.0755916 -0.041875757
2.336149 -1.2406031 -1.1512254
-5.0120015 2.2406206 -1.8084931
-2.3161042 1.0055506 -1.5619493
-1.2470469 -2.0258734 -1.1174351
-3.5677795 1.6077683 -1.6617783
-2.6313155 1.1747122 -1.5798291
0.6596033 -2.134795 0.53905541
-3.6063073 1.6278067 -1.5813134
-5.5042191 2.5027711 -1.8493197
-2.3245888 1.0477487 -1.5637745
-14.703651 3.799243 -1.3649421
-3.7008705 0.97048509 -0.58987707
-3.5709867 1.6345757 -1.6190746
-2.6230845 1.1882294 -1.5791842
-3.7020199 0.12533563 -1.5626304
-5.0028672 2.3052371 -1.8163886
-14.728124 3.2533937 -1.6846919
-5.4653039 2.5228326 -1.8418145
-2.3141544 1.0580741 -1.5607629
-2.694947 1.2398447 -1.5887214
-3.120507 1.421836 -1.6237936
-3.5665808 1.6567104 -1.6219199
-3.9888678 1.8581808 -1.6571072
6.5198302 -3.1901903 -0.60108471
-4.9568095 2.3182499 -1.8049695
-5.4557157 2.5563297 -1.8444053
-9.7521791 -1.5431132 -2.0770812
-4.4422131 2.0735199 -1.7317485
1.9363072 -1.0055176 -1.1876853
-2.3067472 1.069751 -1.5598633
-14.541876 4.6006269 -2.1036007
-2.6847372 1.2529671 -1.5871359
-3.102525 1.4553086 -1.6237793
-3.5778615 1.6876162 -1.582864
-4.111033 1.9436728 -1.715119
-4.9380484 -1.6956701 -1.1683753
-4.9398479 2.3446615 -1.8044062
-6.4542108 -1.5135663 -0.16239452
1.465771 -2.2204111 0.42238384
-4.996223 -0.77842247 -1.6638641
-5.4321308 2.5832181 -1.8422202
-14.684337 3.3201861 -2.0316911
-4.4454231 2.1057732 -1.7385399
-14.520953 4.582027 -2.4533498
-9.844738 -0.80798495 -2.1195889
-3.094425 1.4718359 -1.6241951
-2.3053408 1.0838039 -1.5635958
-2.6786039 1.2674627 -1.587981
-4.9367881 2.3767381 -1.8089294
-6.146852 -0.16931146 -1.7718108
-14.549853 4.0414295 -2.4152589
-5.4157305 2.6123414 -1.8423781
-4.4639859 2.1447659 -1.7514613
6.944972 -2.514003 -0.45126054
-4.6382308 -0.018323451 -1.6720699
-0.64714128 -2.0767453 -1.079888
-2.6696157 1.2816426 -1.5873508
-0.66462547 -2.0662436 -0.88406169
-3.0841243 1.4885298 -1.6237303
-2.2938704 1.0939664 -1.559908
-0.66140085 -2.0620999 -0.68690443
-4.0950222 1.9929187 -1.719177
-3.2684748 0.10677187 -1.5828506
-4.9292903 2.4088275 -1.8122032
-15.141982 -0.50818551 -1.1676344
-5.3965521 2.6423213 -1.8419707
-12.413734 -0.21401027 -2.4139011
-15.454187 -1.9771608 1.0235728
-4.4798017 2.1847026 -1.7637331
2.246485 -1.0247996 -1.1658823
-6.0441952 0.83472025 -1.8047979
-2.6648459 1.2968142 -1.5892236
-3.075834 1.5049502 -1.6241306
-3.5422523 1.7105988 -1.6311351
-4.0404334 1.9935777 -1.7007947
-15.114491 -0.52556193 -1.5144616
-5.3712873 2.6669483 -1.839119
8.8833361 -2.6398449 2.396827
-4.4539948 2.2024622 -1.7588543
-4.8969812 2.4265776 -1.8058156
-0.45229089 -2.0922077 -1.0631754
-2.6558969 1.3104625 -1.5885897
-3.067194 1.5218188 -1.6245353
-3.5253839 1.7581469 -1.6278329
-15.340654 -1.8429772 -0.054948427
-11.352892 2.4808249 -2.3824987
-3.7718282 0.41046172 0.016641162
-3.127528 -1.4809649 -1.5115999
-4.0155616 2.0094473 -1.6955118
-4.4311023 2.2224245 -1.7553471
7.1900978 -2.5287995 -0.46503732
-4.8523836 2.4388456 -1.7949438
-4.6256146 0.034296758 -1.6699083
-2.4611204 1.1937157 -1.5726467
-14.692474 3.4561036 -2.0417888
1.863054 -2.2550945 0.4716709
-0.47310799 -2.0779665 -0.6788916
-3.8448091 1.9502463 -1.6261199
-5.3573675 2.6983128 -1.8404471
-4.3002892 -0.060003608 -1.6523349
-0.25311443 -2.1110139 -1.0564088
-2.7147684 1.3782456 -1.5965078
-3.7226737 1.1370982 -0.18512928
-4.0300941 2.0740552 -1.7133178
-3.7216911 1.1737875 0.11328866
-3.7383916 1.2206587 0.36721942
-4.8452272 2.4873352 -1.8013582
-2.7084363 1.3937798 -1.5978243
-3.5452209 1.8443829 -1.6039088
-3.767633 0.41961136 0.21971467
-3.683356 1.4155561 -0.2159062
-4.0048709 2.0896249 -1.7080011
-2.3269327 1.1807663 -1.570201
-2.7022426 1.4088548 -1.5991247
-3.5544002 1.8738922 -1.6136041
-14.802079 4.1115961 1.4169745
-3.9963694 2.1131105 -1.7099456
6.1165209 -2.7008743 0.086436473
-4.4067707 2.2887194 -1.7602103
-11.011559 3.2211871 -2.3815179
-5.4501376 0.69470215 -1.7527119
-4.8045135 2.5353508 -1.7981033
-15.32791 -2.4684703 -1.4458731
-2.695719 1.4243336 -1.6004282
-3.0149171 1.6006387 -1.6219329
-0.075259194 -2.1135478 -0.82659429
-3.4821088 1.859123 -1.6333627
-3.9595509 2.1220918 -1.6994983
-4.3669333 2.3464091 -1.7588396
-4.78162 2.5751965 -1.7986741
-2.6829851 1.4364343 -1.5977993
-3.0072787 1.6180038 -1.6231886
-3.4826005 1.8845826 -1.6393799
-3.9814568 2.1631007 -1.7152942
-4.3351631 2.3609493 -1.7518228
-4.7599339 2.5985272 -1.796688
0.10077494 -2.1359127 -1.0719699
-2.6765313 1.4513903 -1.59908
-2.9920039 1.6305043 -1.6199281
-4.046226 -1.6000613 0.5476104
-3.464036 1.8988293 -1.6357408
-6.552917 2.0413034 -1.9127684
-6.0713649 -1.5671247 -0.56947619
-3.970875 2.1856027 -1.7164814
-13.494678 4.5537338 -2.6401649
-4.3267193 2.3873363 -1.7543821
-4.0289121 -1.5596143 -0.083852336
-2.5680568 -0.74346995 -1.5042813
-4.7584033 2.6320217 -1.8023802
-2.6634238 1.4637471 -1.5964442
-12.485932 -0.72416079 -2.4047861
-4.0066199 -1.6669314 -1.2964792
-3.456748 1.9208353 -1.6380622
-3.9737308 -1.5628762 -0.46111968
-3.9383574 2.197401 -1.7081971
-2.1703572 1.1948403 -1.5594935
-2.517755 1.3887156 -1.5838549
-5.3020177 1.3910937 -1.7769598
-9.5089617 1.7948192 -2.2005248
-3.460283 1.9476253 -1.6455922
-5.4289703 -1.6181953 0.12801936
-14.715199 3.6682093 -1.3583728
-3.925956 2.2187426 -1.7086315
-4.305553 2.4241016 -1.7551409
-3.7216847 -0.080722064 -1.5615875
-2.163588 1.2063349 -1.5597228
-15.029572 2.1798809 1.1291677
-3.2211769 -1.8662462 -1.2082118
-12.476751 -0.50595617 -2.4125583
-3.8394535 -0.7380904 -0.33945879
-13.590248 3.7660012 -2.5881066
-14.910005 2.1029799 -0.25359938
-3.8580737 -0.71507955 -0.11198809
-14.696653 3.6504297 -1.7061195
-3.4498146 1.9672372 -1.6463394
-5.0575085 -0.12559089 -1.6984091
-3.7546411 -0.76676893 -1.1071197
-48.505863 15.267376 -2.2126853
-14.169283 0.20479752 -2.4444416
-2.1652589 1.2227701 -1.566788
-3.5916765 1.3557031 -0.80628729
-3.3638663 1.9412724 -1.659115
-3.6849995 1.4178201 0.20655563
-2.1514626 1.2297071 -1.5612985
-3.345129 1.9546132 -1.6553764
-14.543014 4.4053426 -2.4425137
-3.6347315 1.3836957 -0.81714904
-9.8548212 -1.0104287 -2.1146886
-2.1444869 1.2410898 -1.561511
-4.9587183 0.66329622 -1.7152278
-14.637515 4.470686 -1.3985002
-37.395699 16.323673 -0.025614716
6.626112 -2.6778295 1.1457012
-5.0272784 -1.6708989 -0.34501868
-5.0913301 -1.6560204 -0.14191368
-3.3416157 1.9778148 -1.6598049
-14.572367 4.4264989 -2.0947123
-14.617732 4.4524255 -1.7493913
-4.6452966 2.6238899 -1.6390418
-15.349603 -1.6199807 -0.067679383
-5.5028076 -1.6053578 -0.57638961
-3.6540465 1.4444909 0.14789313
-0.61363971 -2.0568695 -0.025704395
-0.64519978 -2.0491676 0.07542222
-4.6489172 -0.1882959 -1.669332
-4.9268718 -1.6484323 0.30963597
-4.9511986 -1.6617696 0.47580811
-4.2236304 2.5206022 -1.7497379
6.9260278 -2.7532065 0.27840561
-3.2703755 -0.099629551 -1.5749458
6.8951659 -2.7246306 0.82080537
-2.8959928 1.7916476 -1.6238554
-15.064109 0.13435367 -1.5425985
-4.8946567 -1.6697053 -0.16272983
-4.7156005 -1.6659005 0.4580473
-4.1487975 2.6037774 -1.7444236
-6.3691511 2.7989414 -0.99422807
-6.4238234 2.8489027 -0.063390441
-5.9436636 1.2209742 -1.8109466
-3.5768142 1.4979639 -0.83271939
-3.0974216 -0.3186093 -1.5557274
-15.136811 0.029101513 -0.15530261
-3.1330183 -1.8074732 0.37867069
-3.1271634 -1.8099041 0.5262509
-14.998627 0.044351295 -1.5314598
-4.7149925 -1.6896915 -0.15400735
-15.181625 -1.3433247 -1.8334923
-6.3981876 2.8268075 -0.45163953
-15.038826 0.061836213 -1.1886119
-6.3964763 2.8324964 -0.2180939
-3.8690491 2.3173406 -1.7114801
-6.3819289 2.8088756 -0.83977807
-14.581485 6.1858506 0.67501831
-6.2519746 2.7928886 -0.82620919
-14.620436 6.2127786 1.0394838
-6.3140016 2.8248615 -0.67863834
1.1194508 -2.2173076 -0.58439517
-3.6093605 1.5197048 -0.21030971
-6.241837 2.8253837 -0.2162852
-3.6542811 1.5332797 0.1901623
-15.283495 -2.1646276 -1.8109289
-5.4179988 1.0032306 -1.7709025
-6.3987885 2.8206398 -0.684672
-14.149262 0.37007612 -2.4498427
-3.5107803 2.1232157 -1.6550039
-4.8656464 -1.6829766 -0.50557095
-3.7282462 0.98375785 -0.0034349635
-0.26091623 -2.0876915 -0.25503677
-0.096152321 -2.0934761 -0.042068467
-6.4535036 -1.5821093 -1.5227071
-15.181252 -1.9652945 -2.5217457
-0.0035694242 -2.1358569 -1.0605496
-0.045967042 -2.1275713 -0.85939848
-15.229337 -1.9305142 -1.8139821
-5.4002767 1.1422747 -1.7795322
-6.8340702 -1.4714173 0.13776237
-4.3572426 -1.7023243 -0.39856651
-15.246436 -1.9123853 -1.462332
6.105732 -2.855336 0.091223024
-6.8853965 1.0651469 -1.9026773
-15.279974 -1.8963097 -1.1100152
-4.2944298 -0.25218979 -1.6435766
-3.5572782 2.318676 -1.6113391
-12.454379 -0.32319844 -2.4166143
-4.6908808 -1.7039369 -0.48619005
0.10384104 -2.1196082 -0.22700149
-6.0429091 -1.5608863 -1.7216969
-10.687529 3.7433538 -2.3701246
-5.4590993 2.7347307 -0.88284695
-14.750194 3.3620095 -1.3437268
-5.3483834 1.2271552 -1.7724903
-13.522799 4.3453221 -2.6263506
7.7157798 -2.7686408 -0.49221197
0.084583104 -2.1013174 0.14466062
-2.5598042 -0.91835892 -1.4922612
0.1483162 -2.1501708 -1.006153
-4.0366678 -1.6848176 0.60693049
3.6682844 -0.9015218 -1.0685595
-14.588559 4.0647368 -2.0710113
-3.4792314 2.3435869 -1.6767725
-3.2544892 2.1014769 -1.6594576
-3.7048144 0.46950725 -1.3942955
-3.7357938 -0.27921236 -1.5625131
-14.844562 3.6428735 0.7273702
-3.9529688 -1.7263911 0.54580718
-15.040634 2.1109929 1.480834
-3.6691577 0.51998985 -1.5827277
-14.738213 3.4496353 -1.3477539
-9.1485729 2.3370225 -2.17026
-14.751813 4.3078303 -0.34371242
-15.001214 2.0903587 1.1296554
-3.5604806 2.4247651 -1.6371157
7.0277224 -3.4230452 -0.070580937
-3.8842952 -1.7569424 -0.30435988
-3.1640785 2.2621703 -1.6700866
-14.658403 4.289773 -1.389622
-14.534842 5.0323529 -1.7793863
-12.408949 -0.14359581 -2.4164064
-4.8471942 1.1729122 -1.7306175
-14.574574 5.0576634 -1.4280076
-14.475017 5.0361314 -2.483609
-14.688413 4.3820224 -0.3460187
-3.4652655 -0.29282129 -1.5791959
-6.2622023 2.6818545 -1.9197721
-9.8255739 -0.40750846 -2.1314654
-14.581892 4.2426624 -2.0827513
-9.835021 -1.2093732 -2.1041079
-3.4048867 2.4779055 -1.6499808
-3.73032 1.1772979 -0.0022378638
-3.4748046 -1.8046013 -0.44294778
-8.762001 3.066829 -2.1609781
-3.2264831 0.50524747 -1.596877
0.70489472 -2.1747239 -0.19214287
-3.4909356 -1.7864705 -0.05314555
-8.0587311 -0.27122685 -1.9418963
-6.0156927 1.0231868 -1.8129766
-5.3320103 -1.6992164 -1.5239488
-3.5159602 -1.7776346 0.33958322
-15.328557 -0.80052805 0.94125021
-3.4882834 -1.7923013 -0.2661269
-6.0108657 -1.5578805 0.13168079
-3.231709 2.5206904 -1.6367247
-3.686491 1.4121993 -0.024762563
-5.7813463 1.7648708 -1.8247461
0.90347439 -2.1950233 -0.19275755
-15.192842 0.082149401 0.88378698
-3.8340194 2.4854131 -0.17809266
0.87662464 -2.1771798 0.20206434
-3.8494194 2.4972403 -0.07963983
-7.992074 -1.1013607 -1.8979368
4.5460677 -2.6812985 0.59403443
0.91668409 -2.1984949 -0.57346964
-3.2981477 -1.8137 -0.24998325
-3.3088193 -1.8061994 -0.046002984
-3.2651527 -1.8236679 -0.41714972
-3.086524 2.3529379 -1.6684966
-1.9314401 -1.9142009 0.41062424
-3.6441736 2.4488294 0.35400328
-5.7277184 1.8554926 -1.8208369
1.1017563 -2.2126546 -0.19441992
-6.4392724 2.8644042 0.24975604
1.0913248 -2.2023244 -0.003658019
-2.8971972 -0.30966368 -1.5412138
2.5039186 -2.3475025 -0.71693134
-3.6317048 2.3535414 0.013854347
-3.6365106 2.393446 0.18343616
-3.6554563 1.3807434 0.022777386
-3.6136374 2.3568912 -0.83096111
-3.6164553 2.3515041 -0.67098516
-1.727464 -1.9306375 0.40620503
-2.9832919 2.4533296 -1.6359922
-4.6741004 2.6712711 -0.9684307
-6.518703 2.859093 0.41221374
-3.5857706 2.4166405 -0.028552867
-3.5972056 2.4390178 0.13078511
-3.5398679 2.3852167 -0.8762064
-3.6126616 2.4532609 0.34440011
-3.5574563 2.4065952 -0.68530518
-14.634944 6.2294054 1.4048032
-15.198424 -1.3253857 -1.4844576
-3.5702462 2.4182727 -0.49926889
-15.209669 -1.5056238 -1.4772035
-3.5829639 2.4326606 -0.26682833
-4.79703 -1.7520531 -1.6245379
-15.204638 -1.524936 -1.8283031
-4.1471286 0.94249344 -1.6764728
-6.3313971 2.8411593 0.39804813
-6.0691223 2.8086512 -0.21396434
-4.462091 2.6383557 -0.94278872
-1.4959714 -1.9696959 -0.13805804
-15.312932 -2.331038 -1.4503706
-6.5246859 2.2383423 -1.9289256
-3.567112 2.2177193 -0.62217629
-5.223341 1.5938044 -1.7778562
-10.901156 3.3970208 -2.37694
-1.3272069 -1.9710444 0.42789742
