# .PCD v0.7 - Point Cloud Data file format
VERSION 0.7
FIELDS x y z
SIZE 4 4 4
TYPE F F F
COUNT 1 1 1
WIDTH 1558
HEIGHT 1
VIEWPOINT 0 0 0 1 0 0 0
POINTS 1558
DATA ascii
4.6808071 0.39799714 -1.229789
16.07011 1.3664005 1.8860551
5.1270323 0.43593851 -1.2191975
16.097149 1.3686997 2.2704701
5.6665034 0.48180839 -1.2087986
16.028503 1.3628629 2.6428888
6.3254819 0.53783959 -1.1960827
9.960187 0.84688932 1.8833673
2.1521857 0.17013727 -1.2803327
7.1436448 0.56472838 -1.1773193
2.2683551 0.17932086 -1.2784799
8.1956367 0.64789176 -1.1554152
2.3871067 0.18870854 -1.2732069
9.6835947 0.76551974 -1.1359539
2.5210414 0.19929653 -1.2702489
11.694573 0.92449409 -1.0944529
2.685122 0.21226764 -1.2749372
0 0 0
2.8559685 0.22577362 -1.2755262
16.727577 1.3223695 -0.78250843
3.0282128 0.23939009 -1.2688123
16.850874 1.3321165 -0.39244816
3.2073979 0.25355524 -1.2563547
16.809559 1.3288504 0
3.4285786 0.27104029 -1.2517937
16.822969 1.3299105 0.39179826
3.6889498 0.2916235 -1.2503769
16.896866 1.3357522 0.79042763
3.9740322 0.31416017 -1.243925
16.762646 1.3251417 1.1758151
4.3007255 0.33998632 -1.2370605
16.81827 1.3295389 1.573961
4.6830869 0.37021327 -1.229789
16.802719 1.3283097 1.9710776
5.1314692 0.40565935 -1.2196586
16.853277 1.3323065 2.3759632
5.6283092 0.44493616 -1.2000664
16.774088 1.3260462 2.7644792
6.3266029 0.50013852 -1.1957123
9.9552402 0.78699416 1.8815157
2.1514142 0.15761286 -1.2793125
7.1487465 0.52371806 -1.1776435
2.2693501 0.16625287 -1.2784799
8.2150345 0.60183442 -1.157642
2.3863926 0.17482741 -1.2722679
9.699729 0.71060336 -1.1373477
2.5185826 0.18451166 -1.2684535
11.717577 0.8584311 -1.0961249
2.6881025 0.19693072 -1.2757927
14.897601 1.0914 -1.0445335
2.8572214 0.2093204 -1.2755262
17.380482 1.2732962 -0.81269455
3.0184979 0.22113553 -1.2641873
17.725708 1.2985876 -0.41264156
3.2180951 0.23575804 -1.259992
17.678623 1.2951381 0
3.4357057 0.25170022 -1.2538458
17.677849 1.2950814 0.41152743
3.6830096 0.26981774 -1.247816
17.747101 1.3001548 0.82983726
3.9852962 0.29196328 -1.2469038
17.595764 1.2890677 1.233713
4.3064466 0.31549078 -1.238163
17.683611 1.2955035 1.6542197
4.6851411 0.343234 -1.229789
17.687742 1.2958061 2.073987
5.1337204 0.37609699 -1.2196586
17.723852 1.2984515 2.4976008
5.6327295 0.41265443 -1.2004822
17.42507 1.2765627 2.870506
6.3234973 0.46326017 -1.1946014
9.9576473 0.72949845 1.8811455
2.1574605 0.14518966 -1.2823731
7.159605 0.48181674 -1.1789405
2.2650776 0.15243194 -1.2755408
8.216485 0.55294114 -1.1573635
2.3944356 0.16113728 -1.2760239
9.691884 0.65223044 -1.1359539
2.5214164 0.16968264 -1.2693511
11.728426 0.78928268 -1.0966823
2.6856167 0.18073276 -1.2740813
0 0 0
2.8602364 0.19248407 -1.2763397
17.662809 1.1886463 -0.82555151
3.0215983 0.20334317 -1.2649581
23.225195 1.5629756 -0.5404402
3.2157199 0.21640687 -1.2585371
23.213495 1.5621883 0
3.4390142 0.23143382 -1.2545298
23.185297 1.5602907 0.53951174
3.6883268 0.2482117 -1.2490965
23.196266 1.5610288 1.0841827
3.9907684 0.26856497 -1.2480952
23.176855 1.5597225 1.6243492
4.306325 0.28980085 -1.2376118
22.133604 1.4895153 2.0696325
4.6793737 0.31490573 -1.2277629
0 0 0
5.1358619 0.34562582 -1.2196586
17.845856 1.2009647 2.5137446
5.6311755 0.3789587 -1.1996506
17.365389 1.1686308 2.8594818
6.3280969 0.42585912 -1.1949717
9.9578791 0.67013097 1.8804047
2.1565671 0.13227898 -1.2813529
7.1544585 0.43883842 -1.1776435
2.2676828 0.13909458 -1.2765206
8.2176447 0.5040518 -1.1570852
2.3918247 0.14670914 -1.274146
9.7015314 0.59507012 -1.1366508
2.5277302 0.1550453 -1.2720443
11.728929 0.7194261 -1.0963107
2.692055 0.16512461 -1.2766484
14.913486 0.91475976 -1.0448124
2.8540335 0.17506 -1.2730857
17.655594 1.0829545 -0.82489938
3.02091 0.18529584 -1.2641873
17.628111 1.0812688 -0.41004193
3.2169473 0.19732033 -1.2585371
23.1984 1.4229379 0
3.4384508 0.21090685 -1.2538458
23.178181 1.4216976 0.5391404
3.6859524 0.22608805 -1.247816
23.185184 1.422127 1.0832511
3.9732356 0.24370934 -1.2421377
23.171764 1.421304 1.6233727
4.3118067 0.26447654 -1.2387145
22.116215 1.3565589 2.0672174
4.6830912 0.28725028 -1.2282696
17.868423 1.096009 2.0935001
5.1339374 0.31490418 -1.2187364
17.850695 1.0949215 2.5134664
5.6450405 0.34625408 -1.2021455
17.35626 1.064594 2.8568881
6.3344355 0.38854006 -1.1957123
9.9557943 0.61066604 1.8792939
2.1607492 0.11967043 -1.2833931
7.1727009 0.39725116 -1.1802374
2.2736912 0.12592557 -1.2794596
8.2382889 0.45626748 -1.1595904
2.3997059 0.13290475 -1.2779016
9.7187757 0.53826243 -1.1382769
2.5214679 0.13964839 -1.2684535
11.758839 0.65124875 -1.0987259
2.6893775 0.14894785 -1.2749372
14.940565 0.82746476 -1.0463471
2.8641434 0.15862703 -1.2771531
20.464365 1.1333936 -0.95579886
3.0274844 0.16767348 -1.2664999
0 0 0
3.2199218 0.17833139 -1.2592645
23.194456 1.2845962 0
3.4452715 0.19081211 -1.255898
23.170238 1.2832551 0.53876901
3.6853371 0.20410784 -1.2471757
23.183241 1.2839751 1.0827852
3.9917686 0.22107917 -1.2474995
23.161861 1.282791 1.622117
4.3017826 0.23824893 -1.2354068
22.115919 1.2248629 2.0664742
4.6885767 0.25967103 -1.2292825
17.864697 0.98941416 2.0923388
5.1551471 0.28551143 -1.2233475
17.841055 0.98810476 2.5112395
5.6352763 0.31210279 -1.1996506
17.370153 0.96202451 2.8581851
6.3405547 0.35116377 -1.196453
9.9612055 0.55168903 1.8796642
2.152812 0.10679704 -1.2782923
7.1669855 0.35554096 -1.1789405
2.2691543 0.11256856 -1.2765206
8.2308903 0.40831929 -1.1581986
2.4004316 0.11908099 -1.2779016
9.7256832 0.48247322 -1.1387416
2.5240157 0.12521176 -1.2693511
11.774327 0.58410269 -1.0998405
2.6938019 0.13363455 -1.2766484
14.955048 0.7418924 -1.0470448
2.859535 0.14185627 -1.2747127
20.410692 1.0125368 -0.95300382
3.0265567 0.15014189 -1.2657291
23.193222 1.150573 -0.5391404
3.2208955 0.15978269 -1.2592645
23.179495 1.1498921 0
3.4444363 0.17087214 -1.2552139
23.171255 1.1494833 0.53862977
3.6940215 0.1832536 -1.2497368
23.172293 1.1495348 1.0819468
4.0044169 0.19865175 -1.2510741
23.152924 1.1485739 1.6210009
4.3222852 0.21442062 -1.2409195
22.108686 1.0967712 2.0651736
4.6899948 0.23266201 -1.2292825
17.86018 0.88601065 2.0911775
5.1372685 0.25485045 -1.2187364
17.842495 0.88513333 2.5106831
5.6487031 0.28022176 -1.2021455
17.371464 0.86176634 2.8575366
6.3365827 0.31434619 -1.1953421
9.9544029 0.49381959 1.8778126
2.1585639 0.094245046 -1.2813529
7.1768556 0.31334868 -1.1802374
2.2750084 0.099329136 -1.2794596
8.2331676 0.35946834 -1.1581986
2.4010961 0.10483425 -1.2779016
9.7224216 0.42449063 -1.1380446
2.5247142 0.11023154 -1.2693511
11.783555 0.51448178 -1.1003979
2.6909356 0.11748893 -1.2749372
14.999052 0.65487355 -1.049835
2.8658025 0.1251238 -1.2771531
20.438299 0.89235651 -0.95402867
3.0273943 0.13217905 -1.2657291
23.475306 1.0249553 -0.54554659
3.2236483 0.1407477 -1.259992
23.275826 1.0162458 0
3.4453897 0.15042916 -1.2552139
23.203634 1.0130938 0.53923321
3.6950438 0.1613293 -1.2497368
23.527992 1.0272557 1.098251
3.9921734 0.17430228 -1.2469038
23.27494 1.0162071 1.6290928
4.3254018 0.18885136 -1.2414707
22.09889 0.9648596 2.0636876
4.6854939 0.20457333 -1.2277629
17.853216 0.77948922 2.0897834
5.1445236 0.22461502 -1.2201197
17.835564 0.77871847 2.5090129
5.6502666 0.24669629 -1.2021455
17.348671 0.75746024 2.8529971
6.3363738 0.2766524 -1.1949717
9.9610853 0.43491095 1.8785534
2.159085 0.081434034 -1.2813529
7.1805611 0.27082863 -1.1805618
2.2738152 0.085761294 -1.2784799
8.2470303 0.31105256 -1.1598687
2.4034405 0.090650365 -1.2788407
9.7108736 0.36626419 -1.1364185
2.5235379 0.095180072 -1.2684535
11.81028 0.44544736 -1.1026274
2.6951981 0.10165456 -1.2766484
14.980742 0.56502742 -1.0483003
2.861017 0.10790875 -1.2747127
20.473179 0.77218521 -0.95542616
3.0373461 0.11455933 -1.2695832
25.075409 0.9457671 -0.582591
3.2225649 0.12154522 -1.2592645
25.008219 0.94323295 0
3.4462216 0.12998086 -1.2552139
25.049435 0.94478744 0.5819875
3.695936 0.13939932 -1.2497368
25.150766 0.94860935 1.1737161
3.9988613 0.15082473 -1.2486911
24.827679 0.93642354 1.7373548
4.320683 0.16296284 -1.2398169
22.072388 0.83250248 2.060715
4.6904926 0.17691092 -1.228776
17.85157 0.67330623 2.0890865
5.1477103 0.19415577 -1.2205808
17.827993 0.67241693 2.5073428
5.6496763 0.21308838 -1.2017297
17.370607 0.65516579 2.8559153
6.3437953 0.23926841 -1.1960827
9.9556341 0.37549585 1.8770721
2.1612375 0.069052994 -1.2823731
7.1859469 0.22959584 -1.1812102
2.2760143 0.072720185 -1.2794596
8.2486849 0.26355103 -1.1598687
2.4003923 0.076694153 -1.2769626
9.7386332 0.31115589 -1.1394384
2.529403 0.080816127 -1.2711465
11.794736 0.37684974 -1.1009552
2.6939318 0.086072937 -1.2757927
15.015653 0.47976023 -1.0505325
2.8652437 0.091546468 -1.2763397
20.483276 0.65445447 -0.95570564
3.0250437 0.096652187 -1.2641873
26.934994 0.86059117 -0.62567025
3.2213495 0.10292429 -1.2585371
26.842304 0.85762966 0
3.4487915 0.11019121 -1.255898
26.873041 0.85861176 0.62423116
3.6947839 0.11805083 -1.2490965
27.07275 0.86499256 1.2631563
3.988214 0.12742612 -1.2451166
26.655277 0.85165399 1.8648696
4.3196282 0.13801503 -1.2392657
22.102692 0.70619583 2.0631301
4.7011027 0.15020339 -1.2313086
17.845226 0.57016695 2.0879252
5.1487432 0.16450581 -1.2205808
17.823652 0.56947774 2.5062294
5.6840496 0.18160921 -1.2087986
17.310972 0.55309719 2.8455393
6.3568544 0.20310578 -1.1983044
9.9537039 0.31802753 1.8763316
2.1564603 0.055716019 -1.2793125
7.18327 0.18559267 -1.1805618
2.2781587 0.058860321 -1.2804393
8.2501411 0.21315721 -1.1598687
2.3972855 0.061938174 -1.2750849
9.7383661 0.25160816 -1.1392062
2.531636 0.065409362 -1.2720443
11.8008 0.30489483 -1.1013269
2.6980217 0.069708228 -1.277504
15.010325 0.38781869 -1.0499744
2.8602698 0.073900208 -1.2738992
20.53083 0.53045082 -0.95775539
3.0403366 0.078552552 -1.2703542
26.212187 0.67723888 -0.60877275
3.2256429 0.083340272 -1.259992
29.168268 0.75361454 0
3.443764 0.088975817 -1.2538458
29.166407 0.75356644 0.6773839
3.695436 0.095478222 -1.2490965
29.28639 0.75666642 1.3661989
3.9965522 0.1032581 -1.2474995
28.812008 0.74440992 2.015404
4.3165469 0.11152574 -1.238163
22.032938 0.56926048 2.0562561
4.7038665 0.12153284 -1.2318151
17.838448 0.4608883 2.0867636
5.1477065 0.13300024 -1.2201197
17.82284 0.46048504 2.5056729
5.6615858 0.14627722 -1.2038088
17.34362 0.44810358 2.8504031
6.3579764 0.16426973 -1.1983044
9.9515305 0.25711563 1.8755908
2.1636248 0.043432664 -1.2833931
7.1861925 0.14425583 -1.1808859
2.27846 0.04573787 -1.2804393
8.2512321 0.16563547 -1.1598687
2.3976026 0.04812954 -1.2750849
9.737668 0.19547422 -1.1389738
2.5337579 0.050862726 -1.2729419
11.816298 0.23720069 -1.1026274
2.6965714 0.054131046 -1.2766484
15.006327 0.30123743 -1.0495559
2.8624747 0.0574614 -1.2747127
20.515568 0.4118301 -0.95691687
3.0388935 0.061002832 -1.2695832
0 0 0
3.2223442 0.064685427 -1.2585371
0 0 0
3.4479775 0.069214799 -1.2552139
31.946955 0.64130408 0.74186349
3.6940303 0.074154064 -1.2484562
32.052704 0.6434269 1.4950486
3.9932628 0.080160871 -1.246308
29.898952 0.60019243 2.0911596
4.3171177 0.086661942 -1.238163
22.03784 0.44238824 2.0564418
4.7006197 0.094360374 -1.2308021
17.836834 0.35805711 2.0862992
5.1503329 0.10338793 -1.2205808
17.811337 0.35754526 2.5037243
5.6623344 0.11366586 -1.2038088
17.328156 0.34784588 2.8474851
6.3529224 0.12752874 -1.1971935
9.9449863 0.19963594 1.8741096
2.1483586 0.030748583 -1.2742115
7.1908512 0.10291973 -1.1815344
2.2769425 0.032588951 -1.2794596
8.2718525 0.11839166 -1.1626521
2.3960745 0.034294039 -1.274146
9.7346592 0.13932821 -1.1385092
2.5304346 0.036217082 -1.2711465
11.831405 0.16933809 -1.1039279
2.6932232 0.038547009 -1.2749372
15.047711 0.21537177 -1.0523461
2.8682389 0.041051935 -1.2771531
20.545567 0.29406032 -0.9582212
3.0373492 0.043472346 -1.2688123
0 0 0
3.2245262 0.046151329 -1.2592645
34.262493 0.49038512 0
3.4501982 0.049381282 -1.255898
34.297245 0.49088252 0.7963624
3.7000799 0.052957736 -1.2503769
35.024349 0.50128925 1.6334946
3.9993854 0.057241574 -1.2480952
0 0 0
4.3252344 0.061905321 -1.2403681
22.028076 0.31527889 2.0553272
4.7030201 0.067312412 -1.2313086
17.830656 0.25520292 2.0853698
5.1566806 0.073805474 -1.2219642
17.811119 0.25492328 2.5034459
5.6707196 0.081162706 -1.2054721
17.341711 0.24820484 2.8494303
6.3555169 0.09096393 -1.1975639
9.9518661 0.14243701 1.8752205
2.1605475 0.017723054 -1.2813529
7.1972661 0.059039447 -1.1825072
2.2666376 0.018593315 -1.2735815
8.2704401 0.067842737 -1.1623738
2.3944733 0.019641956 -1.2732069
9.7353287 0.079859272 -1.1385092
2.5288215 0.02074402 -1.2702489
11.822263 0.096978471 -1.102999
2.7024467 0.022168273 -1.2792155
15.062712 0.12356 -1.0533228
2.8702633 0.02354488 -1.2779666
20.574949 0.16877709 -0.95952553
3.041249 0.024947481 -1.2703542
0 0 0
3.2303369 0.026498577 -1.261447
0 0 0
3.4504354 0.028304053 -1.255898
0 0 0
3.6984398 0.030338442 -1.2497368
63.536816 0.52119493 2.9630787
4.0015702 0.032825034 -1.2486911
31.537926 0.25870681 2.2054207
4.3216872 0.035450965 -1.2392657
22.001715 0.18048091 2.0527263
4.7091475 0.038629316 -1.232828
17.823936 0.14621043 2.0844405
5.1589813 0.04231932 -1.2224253
17.802441 0.14603411 2.5020542
5.6691532 0.046504281 -1.2050563
17.327118 0.14213501 2.8468366
6.3618503 0.0521865 -1.1986748
9.9407597 0.081544429 1.8729987
2.1606138 0.0052797203 -1.2813529
7.1895924 0.017568635 -1.1812102
2.2841432 0.0055815796 -1.2833782
8.2766361 0.020224959 -1.163209
2.406908 0.0058815698 -1.2797796
9.7475462 0.023819303 -1.1399029
2.5306861 0.0061840368 -1.2711465
11.84453 0.028943537 -1.1050426
2.6916831 0.0065774522 -1.2740813
15.051202 0.036779426 -1.0524857
2.8666973 0.0070051206 -1.2763397
20.597555 0.05033261 -0.96055037
3.032115 0.0074093384 -1.2664999
0 0 0
3.2229838 0.0078757489 -1.2585371
0 0 0
3.4505413 0.0084318137 -1.255898
61.291302 0.14977269 1.4230075
3.6966584 0.0090332301 -1.2490965
0 0 0
3.9959648 0.009764622 -1.2469038
31.550865 0.07709834 2.2062578
4.3333549 0.010589075 -1.2425733
21.980484 0.053711962 2.0506825
4.7092919 0.011507722 -1.232828
17.822495 0.043551415 2.0842083
5.1552477 0.012597469 -1.2215031
17.797045 0.043489225 2.501219
5.6634583 0.013839343 -1.2038088
17.303967 0.042284328 2.8429456
6.3640103 0.015551226 -1.1990451
9.9332027 0.024272978 1.8715175
2.1588869 -0.007535967 -1.2803327
7.2014112 -0.025137769 -1.1831557
2.2823925 -0.0079670846 -1.2823986
8.2746296 -0.028884023 -1.1629305
2.3963053 -0.0083647165 -1.274146
9.7673807 -0.034094725 -1.1422261
2.5288913 -0.0088275308 -1.2702489
11.850467 -0.0413661 -1.1055999
2.7061365 -0.0094462363 -1.2809267
15.055146 -0.052552585 -1.0527648
2.863034 -0.0099939136 -1.2747127
20.613474 -0.071954891 -0.96129572
3.0265691 -0.010564761 -1.2641873
0 0 0
3.2248368 -0.011256849 -1.2592645
44.47773 -0.1552572 0
3.4505305 -0.012044672 -1.255898
0 0 0
3.7004364 -0.012917011 -1.2503769
0 0 0
4.0035892 -0.013975219 -1.2492868
31.562737 -0.11017518 2.2070949
4.3275743 -0.015106144 -1.2409195
21.946564 -0.076608263 2.0475242
4.7073421 -0.01643179 -1.2323215
17.816481 -0.062191501 2.0835114
5.1571774 -0.018002018 -1.2219642
17.791048 -0.062102724 2.5003843
5.6732221 -0.01980336 -1.2058879
17.317726 -0.060450509 2.8452153
6.3580947 -0.022194026 -1.1979342
9.9331722 -0.034673449 1.8715175
2.1605244 -0.020363063 -1.2813529
7.2070556 -0.067926906 -1.1841284
2.2840488 -0.021527288 -1.2833782
8.2683716 -0.077929869 -1.1620954
2.4068084 -0.022684304 -1.2797796
9.7670059 -0.092054583 -1.1422261
2.5341558 -0.023884563 -1.2729419
11.859969 -0.11178087 -1.1065289
2.698802 -0.025436362 -1.277504
15.076514 -0.142097 -1.0542994
2.8684053 -0.027034882 -1.2771531
20.638653 -0.19452047 -0.96250683
3.0375254 -0.028628848 -1.2688123
0 0 0
3.2284389 -0.030428218 -1.2607194
0 0 0
3.4428811 -0.03244935 -1.2531618
44.460045 -0.41903844 1.032277
3.6927159 -0.034804057 -1.247816
0 0 0
4.0015268 -0.037714619 -1.2486911
31.545567 -0.29731873 2.2059786
4.3274083 -0.040786069 -1.2409195
21.943729 -0.20682089 2.0473385
4.7071619 -0.044365264 -1.2323215
17.819771 -0.16795234 2.083976
5.162818 -0.048659854 -1.2233475
17.778484 -0.16756321 2.498714
5.6651797 -0.053394642 -1.2042246
17.273647 -0.1628051 2.8380818
6.3775043 -0.060108338 -1.2016371
9.9367208 -0.093654156 1.8722581
2.1586511 -0.032780264 -1.2803327
7.1947045 -0.10925541 -1.1821829
2.2803998 -0.034629084 -1.2814189
8.267786 -0.12555072 -1.1620954
2.4084034 -0.036572885 -1.2807186
9.7762451 -0.14845747 -1.1433876
2.5321891 -0.038452633 -1.2720443
11.873067 -0.18029882 -1.1078293
2.7058411 -0.041089632 -1.2809267
15.073451 -0.22889835 -1.0541598
2.8736827 -0.043638401 -1.2795936
20.647179 -0.31353837 -0.9629727
3.0446913 -0.046235252 -1.2718958
0 0 0
3.230073 -0.049050372 -1.261447
44.460876 -0.67516202 0
3.4482746 -0.05236388 -1.2552139
44.442902 -0.67488903 1.031952
3.7057159 -0.056273263 -1.2522976
0 0 0
4.0088792 -0.060876958 -1.2510741
31.485479 -0.47812372 2.2019329
4.3271017 -0.065709338 -1.2409195
21.930229 -0.33302218 2.0462239
4.7242398 -0.071740091 -1.2368801
17.812548 -0.270493 2.0832791
5.1663442 -0.078453675 -1.2242699
17.779203 -0.26998666 2.4989924
5.6667342 -0.086052366 -1.2046404
17.302023 -0.2627404 2.8429456
6.3790174 -0.096868761 -1.2020074
9.9202967 -0.15064497 1.8692957
2.1412199 -0.045226038 -1.2701308
7.2097149 -0.15228087 -1.1847769
2.2853839 -0.048271015 -1.284358
8.2748156 -0.17477752 -1.163209
2.3957856 -0.050602876 -1.274146
9.7890949 -0.20676155 -1.1450137
2.5301294 -0.053440437 -1.2711465
11.881742 -0.25096166 -1.1087582
2.6983202 -0.056992896 -1.277504
15.067838 -0.31825718 -1.0538808
2.8715465 -0.06065172 -1.27878
20.668924 -0.43656123 -0.9640907
3.0332928 -0.064068064 -1.2672707
0 0 0
3.2315876 -0.068256371 -1.2621745
44.376102 -0.93729532 0
3.4535398 -0.072944365 -1.257266
0 0 0
3.707211 -0.078302309 -1.2529379
0 0 0
4.0008125 -0.084503651 -1.2486911
31.472115 -0.66474211 2.2012353
4.3381681 -0.091629148 -1.2442272
21.91194 -0.4628157 2.0447373
4.7159934 -0.099609435 -1.2348541
17.80666 -0.37610552 2.0828145
5.1677332 -0.10915091 -1.224731
17.773331 -0.37540156 2.4984357
5.7013292 -0.12042133 -1.2121253
17.296213 -0.36532405 2.8422973
6.3763657 -0.13467918 -1.2016371
9.9231567 -0.20959318 1.8700362
2.1615491 -0.058489799 -1.2823731
7.2007923 -0.19484772 -1.1834798
2.2833142 -0.06178467 -1.2833782
8.273632 -0.22387791 -1.163209
2.3972082 -0.064866543 -1.2750849
9.8015957 -0.26522338 -1.1466398
2.5333412 -0.068550192 -1.2729419
11.880043 -0.32146451 -1.1087582
2.6961277 -0.072955064 -1.2766484
15.099589 -0.4085829 -1.0562526
2.871136 -0.077690654 -1.27878
20.695927 -0.56001532 -0.96548826
3.0383935 -0.082216509 -1.2695832
0 0 0
3.2274008 -0.0873309 -1.2607194
44.393753 -1.2012596 0
3.4511676 -0.093385853 -1.256582
44.397781 -1.2013686 1.0311629
3.708575 -0.10035109 -1.2535781
0 0 0
3.9983313 -0.10819167 -1.2480952
31.449665 -0.85100293 2.1999798
4.3356261 -0.11731859 -1.2436758
21.882929 -0.59213465 2.0423224
4.7056484 -0.12733109 -1.2323215
17.800142 -0.48165768 2.08235
5.1611581 -0.13965683 -1.2233475
17.75495 -0.48043478 2.4962089
5.6809587 -0.15372223 -1.207967
17.301632 -0.46816838 2.8435941
6.3833127 -0.17272736 -1.2031183
9.9119148 -0.2682085 1.8681847
2.1697605 -0.07159926 -1.287474
7.219234 -0.23822528 -1.1867223
2.2829075 -0.075332962 -1.2833782
8.2840357 -0.27336234 -1.164879
2.4091356 -0.079498321 -1.2816575
9.797864 -0.32331669 -1.1464075
2.5311034 -0.083523095 -1.2720443
11.887877 -0.39228439 -1.1096871
2.6974537 -0.089012444 -1.277504
15.088923 -0.4979147 -1.0556945
2.8724506 -0.094787113 -1.2795936
20.608374 -0.68004936 -0.96157515
3.0433857 -0.10042775 -1.2718958
0 0 0
3.2268257 -0.10648103 -1.2607194
44.455807 -1.4669834 0
3.452431 -0.1139257 -1.257266
44.427841 -1.4660606 1.0320449
3.7098081 -0.12241881 -1.2542183
0 0 0
3.9995277 -0.13197918 -1.2486911
31.402189 -1.0362312 2.1970499
4.3367753 -0.14310791 -1.2442272
21.859127 -0.7213226 2.0404644
4.7125454 -0.15550783 -1.2343475
17.791014 -0.58708018 2.0816529
5.1641288 -0.1704095 -1.2242699
17.741888 -0.58545911 2.4948173
5.6819015 -0.18749532 -1.2083828
17.28474 -0.57037383 2.8413243
6.38414 -0.21066827 -1.2034887
9.9062204 -0.32689232 1.8674442
2.1572797 -0.083628483 -1.2803327
7.2078824 -0.27941868 -1.185101
2.2824357 -0.088480242 -1.2833782
8.2862816 -0.32122359 -1.1654357
2.4068732 -0.093304157 -1.2807186
9.7978239 -0.37981963 -1.1466398
2.5305803 -0.098099738 -1.2720443
11.893381 -0.46105537 -1.1104302
2.6987028 -0.10461713 -1.2783597
15.097766 -0.58527565 -1.0565315
2.8718572 -0.11132958 -1.2795936
20.747854 -0.80430526 -0.96828324
3.0427568 -0.11795463 -1.2718958
0 0 0
3.2298825 -0.12520869 -1.2621745
44.414642 -1.7217652 0
3.4535956 -0.13388109 -1.2579501
44.384693 -1.7206042 1.0312556
3.7166147 -0.14407721 -1.2567792
0 0 0
3.996793 -0.15493852 -1.2480952
31.453514 -1.2193178 2.2010958
4.3358788 -0.16808343 -1.2442272
21.83272 -0.84636092 2.0384207
4.7096376 -0.18257245 -1.2338411
17.795277 -0.68984658 2.082582
5.1650062 -0.20022514 -1.224731
17.724369 -0.68709779 2.4928687
5.6709528 -0.21983851 -1.2063037
17.318638 -0.67136931 2.8474851
6.3808565 -0.24735844 -1.2031183
9.9022093 -0.38386619 1.8670739
2.1619177 -0.096281655 -1.2833931
7.2179832 -0.32145506 -1.1870465
2.2836301 -0.10170215 -1.284358
8.2902298 -0.36920786 -1.1662706
2.4010036 -0.10692942 -1.2779016
9.8093653 -0.43686303 -1.1482658
2.5335441 -0.11283215 -1.2738396
11.900475 -0.52999121 -1.1113592
2.6944437 -0.11999787 -1.2766484
15.104112 -0.67266613 -1.0572292
2.8729935 -0.12794963 -1.2804071
20.76483 -0.92476797 -0.96930802
3.0401833 -0.13539548 -1.271125
0 0 0
3.2235243 -0.14356062 -1.259992
44.419971 -1.9782568 0
3.4527674 -0.15377003 -1.2579501
0 0 0
3.7100446 -0.16522795 -1.2548585
44.359779 -1.975576 2.0707266
4.0015564 -0.17821053 -1.2498825
31.194832 -1.3892713 2.1835172
4.3386798 -0.19322442 -1.2453296
21.803612 -0.97103041 2.0361915
4.718173 -0.21012527 -1.2363737
17.787041 -0.79215115 2.0821176
5.1618233 -0.22988336 -1.2242699
17.71814 -0.78908271 2.4925907
5.6793647 -0.25293222 -1.2083828
17.304626 -0.77066678 2.8458638
6.3832526 -0.28428009 -1.203859
9.8939438 -0.44062975 1.8659629
2.1612892 -0.10948619 -1.2833931
7.2198262 -0.36574063 -1.187695
2.2847075 -0.1157383 -1.2853376
8.2897968 -0.41994298 -1.166549
2.4020693 -0.12168358 -1.2788407
9.7886572 -0.49587199 -1.1461751
2.5345926 -0.12839693 -1.2747374
11.916903 -0.60368431 -1.113217
2.700882 -0.13682078 -1.280071
15.12363 -0.76613003 -1.0589032
2.8721581 -0.14549726 -1.2804071
20.786726 -1.0530101 -0.97061235
3.0282409 -0.15340407 -1.2664999
0 0 0
3.2318902 -0.16372049 -1.2636294
44.391079 -2.2487552 0
3.4498863 -0.17476371 -1.257266
44.377125 -2.2480481 1.0316271
3.7051814 -0.1876964 -1.2535781
44.336903 -2.2460108 2.0702608
4.0003929 -0.20265117 -1.2498825
31.137941 -1.5773801 2.1801689
4.3354988 -0.2196269 -1.2447784
21.761475 -1.1023887 2.0328472
4.7187333 -0.23904073 -1.2368801
17.785837 -0.90099162 2.082582
5.168097 -0.26180452 -1.2261143
17.677385 -0.89549768 2.4875801
5.679667 -0.28771952 -1.2087986
17.236525 -0.87316465 2.8354881
6.3774714 -0.32306877 -1.2031183
9.8792896 -0.50046325 1.8637412
2.158884 -0.12221231 -1.2823731
7.2116175 -0.40824261 -1.1867223
2.2839806 -0.1292939 -1.2853376
8.2970457 -0.46968761 -1.1679407
2.3977783 -0.13573588 -1.2769626
9.8113251 -0.55540949 -1.1491951
2.5337861 -0.14343515 -1.2747374
11.9151 -0.67450213 -1.1134028
2.6946077 -0.1525391 -1.277504
15.162641 -0.85834223 -1.0619726
2.8602991 -0.16191873 -1.2755262
20.776121 -1.1761159 -0.97042602
3.040175 -0.17210132 -1.2718958
0 0 0
3.2215614 -0.18236944 -1.259992
44.396923 -2.5132663 0
3.450665 -0.19533877 -1.2579501
44.370983 -2.5117979 1.0318128
3.6964355 -0.20925158 -1.2510172
44.352715 -2.5107636 2.0716584
4.0010262 -0.22649418 -1.2504783
0 0 0
4.3379579 -0.24556755 -1.2458808
21.756536 -1.2316163 2.0330331
4.7114367 -0.2667098 -1.2353605
17.782162 -1.0066307 2.0828145
5.1645098 -0.29235783 -1.2256532
17.632212 -0.9981423 2.4820135
5.6778598 -0.32141808 -1.2087986
17.286209 -0.97855538 2.8445668
6.3793664 -0.36112967 -1.203859
9.8800707 -0.55930114 1.8644818
2.1598377 -0.13512856 -1.2833931
7.2149777 -0.45139948 -1.187695
2.2796929 -0.14262721 -1.2833782
8.2842293 -0.51829636 -1.166549
2.400456 -0.15018266 -1.2788407
9.8118229 -0.61386907 -1.1496598
2.5328903 -0.15846832 -1.2747374
11.918837 -0.74569273 -1.114146
2.6972637 -0.16875221 -1.2792155
15.153297 -0.94805425 -1.0616935
2.8702292 -0.17957366 -1.2804071
20.802675 -1.3015033 -0.9720099
3.0317328 -0.189678 -1.2688123
0 0 0
3.2260008 -0.20183223 -1.2621745
44.373245 -2.7761774 0
3.4513209 -0.2159292 -1.2586341
44.341331 -2.7741809 1.0314878
3.6913466 -0.23094624 -1.2497368
0 0 0
4.0072341 -0.25070947 -1.2528613
31.001539 -1.9395871 2.1720772
4.3364244 -0.27130502 -1.2458808
21.734936 -1.3598293 2.0317326
4.7155643 -0.29502562 -1.2368801
17.767944 -1.1116376 2.0818853
5.1782222 -0.32397145 -1.2293421
17.584469 -1.1001587 2.4761682
5.6817102 -0.35547179 -1.2100462
17.309643 -1.0829643 2.8494303
6.3751497 -0.39885631 -1.2034887
9.8706932 -0.61755228 1.8633708
2.1641722 -0.14791793 -1.2864537
7.2398233 -0.49483109 -1.1922344
2.2840521 -0.15611155 -1.2863173
8.3067932 -0.56775689 -1.1701674
2.3942657 -0.16364446 -1.2760239
9.8101063 -0.67050606 -1.149892
2.5337186 -0.17317587 -1.2756351
11.942159 -0.81622863 -1.1167469
2.6980505 -0.18440771 -1.280071
15.147585 -1.0353148 -1.0616935
2.8655016 -0.19585274 -1.27878
20.824732 -1.4233392 -0.97340739
3.0379546 -0.20763965 -1.2718958
0 0 0
3.2247849 -0.22040921 -1.2621745
44.278698 -3.0263827 0
3.4518948 -0.23593184 -1.2593181
44.332596 -3.0300665 1.0316734
3.7031875 -0.25310731 -1.2542183
0 0 0
4.001914 -0.27352482 -1.2516698
30.930138 -2.1140285 2.1678917
4.3386259 -0.29653859 -1.2469834
21.692966 -1.4826818 2.0285742
4.7060657 -0.32165256 -1.2348541
17.769175 -1.2144965 2.0828145
5.1723871 -0.35352489 -1.2284198
17.512636 -1.1969624 2.4669826
5.6756654 -0.38792324 -1.2092146
17.28343 -1.1812966 2.8461881
6.38059 -0.43610376 -1.2049699
9.8650112 -0.67425877 1.8630005
2.1598256 -0.16050276 -1.2844135
7.2190471 -0.53646785 -1.1893163
2.2830856 -0.16966256 -1.2863173
8.2993288 -0.61674666 -1.1696109
2.4020576 -0.17850372 -1.2807186
9.8039742 -0.72856104 -1.1496598
2.536211 -0.18847303 -1.2774305
11.947034 -0.88781798 -1.1176759
2.6987116 -0.2005489 -1.2809267
15.145155 -1.1254795 -1.0619726
2.867933 -0.21312425 -1.2804071
20.87569 -1.5513316 -0.97620237
3.0403497 -0.22593701 -1.2734375
0 0 0
3.2289937 -0.23995566 -1.2643569
44.293865 -3.2916026 0
3.4504342 -0.25641155 -1.2593181
44.323807 -3.2938278 1.0319057
3.6940622 -0.27451622 -1.2516574
0 0 0
4.0002203 -0.29726771 -1.2516698
30.895163 -2.295907 2.166357
4.3348727 -0.32213667 -1.2464322
21.671873 -1.6104983 2.0274594
4.7137213 -0.35029 -1.2373866
17.767597 -1.3203605 2.0835114
5.1721392 -0.38435632 -1.228881
17.473621 -1.2985144 2.4625289
5.6830182 -0.4223212 -1.2112936
17.226913 -1.2801807 2.8380818
6.38377 -0.47439605 -1.2060808
9.8529978 -0.7322042 1.8615193
2.1554055 -0.17304118 -1.2823731
7.2255716 -0.58008647 -1.1909374
2.2837763 -0.18334711 -1.2872969
8.2955227 -0.66598469 -1.1696109
2.4027162 -0.19289589 -1.2816575
9.7994776 -0.78672582 -1.1496598
2.5261407 -0.2028047 -1.2729419
11.949495 -0.95933449 -1.1184191
2.6920681 -0.21612577 -1.2783597
15.144176 -1.2158113 -1.062391
2.8629754 -0.22984661 -1.27878
20.884039 -1.6766213 -0.97704089
3.0389555 -0.24397473 -1.2734375
0 0 0
3.223799 -0.25881439 -1.2629019
44.381207 -3.563031 0
3.4525983 -0.27718297 -1.2606862
0 0 0
3.6980343 -0.29688716 -1.2535781
0 0 0
3.9964826 -0.32084733 -1.2510741
30.835253 -2.475529 2.1631484
4.338634 -0.34831607 -1.2480861
21.648037 -1.737957 2.026159
4.7212029 -0.3790296 -1.2399191
17.759449 -1.4257717 2.0835114
5.1736469 -0.41535294 -1.2298032
17.45179 -1.401072 2.4605806
5.6648121 -0.45478484 -1.207967
11.368522 -0.91269255 1.8737891
6.3788829 -0.5121122 -1.2057105
9.8504381 -0.79081708 1.8618896
2.1612287 -0.18604264 -1.2864537
7.2181787 -0.6213544 -1.1902889
2.2774711 -0.196049 -1.284358
8.2915497 -0.71375215 -1.1696109
2.3945282 -0.20612548 -1.2779016
9.7987423 -0.84349418 -1.1501243
2.526711 -0.21750404 -1.2738396
11.94774 -1.028484 -1.1187906
2.6961818 -0.23209241 -1.2809267
15.186617 -1.3072926 -1.0658789
2.8616042 -0.24633226 -1.27878
20.872046 -1.7967049 -0.97694767
3.0374999 -0.26147372 -1.2734375
0 0 0
3.2259669 -0.27769729 -1.2643569
0 0 0
3.4509447 -0.2970638 -1.2606862
44.270309 -3.8108714 1.0316271
3.6943753 -0.31801876 -1.2529379
63.267017 -5.4461441 2.9613087
3.9964707 -0.34402373 -1.2516698
30.796631 -2.651032 2.1614742
4.3269782 -0.37247443 -1.2453296
21.613861 -1.8605618 2.0239296
4.7112303 -0.40555158 -1.237893
17.745007 -1.5275235 2.0828145
5.163413 -0.44447631 -1.2279588
17.437511 -1.5010538 2.4597456
5.6698947 -0.4880752 -1.2096304
11.353245 -0.97730863 1.8721678
6.3856187 -0.54968607 -1.2075621
9.8378868 -0.84686381 1.8604083
2.1583738 -0.19870655 -1.2854337
7.212399 -0.66399574 -1.1899647
2.2762675 -0.20956023 -1.284358
8.2911119 -0.76330537 -1.1701674
2.3915038 -0.22016925 -1.2769626
9.8133459 -0.90344691 -1.1524473
2.5271556 -0.23265778 -1.2747374
11.927546 -1.0980867 -1.1174901
2.6929572 -0.24792196 -1.280071
15.182565 -1.3977538 -1.0661579
2.8582726 -0.26314142 -1.2779666
20.876932 -1.9219949 -0.97769302
3.0340569 -0.27932468 -1.2726666
0 0 0
3.220552 -0.29649398 -1.2629019
44.298672 -4.0782723 0
3.4509928 -0.31770906 -1.2613703
0 0 0
3.6943097 -0.34010959 -1.2535781
0 0 0
4.0019631 -0.36843312 -1.2540528
30.766449 -2.8324544 2.1604977
4.3380928 -0.39937824 -1.2491885
21.570713 -1.9858664 2.020957
4.7145209 -0.43403336 -1.2394125
17.74354 -1.6335251 2.0837436
5.1664982 -0.47564381 -1.2293421
17.416462 -1.6034133 2.4580755
5.6668987 -0.52171218 -1.2096304
11.331524 -1.0432152 1.869574
6.3783298 -0.58720875 -1.2068214
9.8307314 -0.90504748 1.860038
2.1468844 -0.21050386 -1.2793125
7.2102962 -0.7069757 -1.1902889
2.2749841 -0.22306414 -1.284358
8.2943211 -0.81326526 -1.1712809
2.3901553 -0.23435678 -1.2769626
9.7979269 -0.96069509 -1.1512858
2.5292881 -0.24799885 -1.2765328
11.930729 -1.1698182 -1.1184191
2.6932375 -0.26407424 -1.2809267
15.183931 -1.4887974 -1.0668555
2.8621159 -0.28063291 -1.2804071
20.869133 -2.0462365 -0.97787935
3.0360196 -0.29768431 -1.2742083
0 0 0
3.2094655 -0.31469083 -1.2592645
0 0 0
3.4434354 -0.33763179 -1.2593181
0 0 0
3.7016551 -0.36295044 -1.2567792
63.197926 -6.1966109 2.9613087
3.9921064 -0.39142945 -1.2516698
30.683575 -3.0085506 2.1558936
4.3260798 -0.42417586 -1.2464322
21.532785 -2.1113081 2.0185421
4.715714 -0.46237978 -1.2404256
17.739466 -1.7393699 2.0844405
5.1616483 -0.50610405 -1.228881
17.408613 -1.7069294 2.458354
5.6714911 -0.55609453 -1.2112936
11.319242 -1.1098614 1.8686013
6.3727775 -0.62485629 -1.2064512
9.8173628 -0.96260083 1.8585567
2.1559026 -0.22393179 -1.2854337
7.2139568 -0.74930763 -1.1915859
2.2788641 -0.23670371 -1.2872969
8.3091993 -0.86306953 -1.1740644
2.3905227 -0.24830158 -1.2779016
9.8001337 -1.0179317 -1.152215
2.5278177 -0.2625623 -1.2765328
11.915871 -1.2376914 -1.1176759
2.6952679 -0.27995521 -1.282638
15.161214 -1.5747825 -1.0658789
2.8604522 -0.29711276 -1.2804071
20.916618 -2.1725914 -0.98067445
3.0287478 -0.31459349 -1.2718958
0 0 0
3.2168648 -0.33413306 -1.2629019
0 0 0
3.448911 -0.35823548 -1.2620543
0 0 0
3.6957343 -0.38387281 -1.2554988
62.950554 -6.5386209 2.9514329
3.9973814 -0.41520464 -1.2540528
30.630016 -3.181514 2.1533823
4.3273892 -0.44948229 -1.2475346
21.524229 -2.2357037 2.0189135
4.7052751 -0.48873296 -1.2383996
17.735083 -1.8421282 2.0851376
5.1683259 -0.53682971 -1.2311865
17.398493 -1.8071669 2.458354
5.6584649 -0.58774 -1.2092146
11.332292 -1.1770756 1.8718436
6.3768926 -0.66236246 -1.2079324
9.811656 -1.0191284 1.8585567
2.1528258 -0.2365333 -1.2844135
7.1995745 -0.79102498 -1.1899647
2.2756865 -0.25003213 -1.2863173
8.2822752 -0.90998256 -1.1710026
2.3907626 -0.26267564 -1.2788407
9.7919455 -1.0758517 -1.1519827
2.5262151 -0.27755797 -1.2765328
11.916234 -1.3092495 -1.1184191
2.6773872 -0.29416743 -1.2749372
15.1754 -1.6673375 -1.067553
2.8586385 -0.3140817 -1.2804071
20.899384 -2.2962377 -0.980488
3.0378344 -0.33377016 -1.2765208
0 0 0
3.2148254 -0.35321635 -1.2629019
0 0 0
3.4411199 -0.37807956 -1.2600023
34.141296 -3.7511408 0.79743016
3.6952744 -0.4060038 -1.256139
34.651596 -3.8072081 1.6256686
3.9910519 -0.43850118 -1.2528613
30.576885 -3.3595154 2.1510108
4.330379 -0.47578341 -1.2491885
21.467035 -2.3586063 2.0148263
4.7061377 -0.51706845 -1.2394125
17.727785 -1.947771 2.085602
5.1611805 -0.56706446 -1.2302644
17.389431 -1.9105955 2.4586322
5.6665449 -0.62258941 -1.2117094
11.291757 -1.2406375 1.8663315
6.3767571 -0.70062119 -1.208673
9.7976208 -1.0764753 1.8570757
2.1565108 -0.24989821 -1.287474
7.2123976 -0.83577847 -1.1928829
2.2706988 -0.2631304 -1.284358
8.2964039 -0.96139395 -1.1737859
2.3874075 -0.27665472 -1.2779016
9.8070955 -1.1364542 -1.154538
2.520973 -0.29213238 -1.2747374
11.928036 -1.3822304 -1.1202768
2.6863687 -0.31129858 -1.280071
15.173165 -1.7582787 -1.0681111
2.8621695 -0.33167052 -1.2828474
20.885389 -2.4202158 -0.980488
3.0284674 -0.35094127 -1.2734375
25.853979 -2.99598 -0.60426986
3.2163739 -0.37271601 -1.2643569
32.06543 -3.7157679 0
3.4425499 -0.39892548 -1.2613703
0 0 0
3.7059753 -0.42945144 -1.2606207
0 0 0
3.9921722 -0.46261618 -1.2540528
30.550465 -3.5402126 2.1505921
4.3255696 -0.50125051 -1.2486373
21.43288 -2.4836595 2.0129683
4.706831 -0.54543138 -1.2404256
17.725784 -2.0540781 2.0867636
5.1693234 -0.59902543 -1.233031
17.381723 -2.0142081 2.4591887
5.658864 -0.65575379 -1.2108778
11.299881 -1.3094393 1.8689255
6.3724875 -0.73844898 -1.208673
9.7949657 -1.1350486 1.8578162
2.1549897 -0.26269072 -1.287474
7.2151465 -0.87951791 -1.1941798
2.2587123 -0.27533439 -1.2784799
8.2866201 -1.0101292 -1.1732293
2.3909824 -0.29145795 -1.2807186
9.7942629 -1.1939092 -1.153841
2.5174208 -0.30687064 -1.2738396
11.913693 -1.4522653 -1.1197195
2.6826797 -0.32701549 -1.2792155
15.164446 -1.8485281 -1.0682507
2.8565233 -0.34820685 -1.2812204
20.856777 -2.5424168 -0.97983587
3.0299954 -0.36935288 -1.2749791
25.851622 -3.1512823 -0.60464126
3.2085578 -0.39111942 -1.2621745
29.519489 -3.5983911 0
3.438256 -0.41911939 -1.2606862
29.432146 -3.587744 0.68838578
3.6958385 -0.45051837 -1.2580597
29.186005 -3.5577397 1.3711368
3.9950423 -0.48699099 -1.2558399
29.627806 -3.6115947 2.0871139
4.3263359 -0.52737528 -1.2497399
21.415789 -2.6105595 2.0127826
4.7054315 -0.57358658 -1.2409321
17.723141 -2.16043 2.0879252
5.1560192 -0.62851268 -1.2307255
17.383224 -2.1189947 2.4611373
5.662641 -0.69026929 -1.2125411
11.331092 -1.3812468 1.8754103
6.3543358 -0.77458608 -1.2060808
9.7900076 -1.1933905 1.8581865
2.1448612 -0.27438259 -1.2823731
7.2078433 -0.92206746 -1.1938555
2.274334 -0.29094547 -1.2882767
8.2922668 -1.060793 -1.1748995
2.392714 -0.30608928 -1.2825963
9.8165627 -1.2557894 -1.1573256
2.5155554 -0.32180384 -1.2738396
11.896965 -1.5219259 -1.1189764
2.6824849 -0.34315839 -1.280071
15.184873 -1.9425335 -1.0704829
2.8544068 -0.36515161 -1.2812204
20.849253 -2.6671526 -0.98020858
3.0259197 -0.3870925 -1.2742083
27.097813 -3.4665029 -0.63425827
3.21542 -0.41133443 -1.2658119
27.192404 -3.4786036 0
3.4357085 -0.43951496 -1.2606862
27.109713 -3.4680254 0.63453674
3.6893408 -0.47196102 -1.2567792
27.055874 -3.461138 1.2720072
3.9901884 -0.51044714 -1.2552443
27.359686 -3.5000033 1.9287665
4.3250375 -0.55328286 -1.2502911
21.378193 -2.7348175 2.0107391
4.6981068 -0.601008 -1.2399191
17.715919 -2.266319 2.0886219
5.1406159 -0.65761626 -1.2279588
17.378202 -2.2231166 2.4622507
5.6623259 -0.72435629 -1.2133728
11.213071 -1.4344385 1.8572527
6.3730216 -0.81527245 -1.2105244
9.7827539 -1.2514644 1.8581865
2.158591 -0.28878444 -1.2915547
7.2102375 -0.96461284 -1.1951525
2.2691643 -0.30357736 -1.2863173
8.2879839 -1.1087978 -1.1751777
2.3909113 -0.31986517 -1.2825963
9.8012905 -1.3112537 -1.1563964
2.5189748 -0.33699796 -1.2765328
11.899844 -1.5920061 -1.1200911
2.6858392 -0.35932171 -1.282638
15.185299 -2.0315466 -1.0713199
2.8504455 -0.38134336 -1.2804071
20.867207 -2.7916937 -0.98179233
3.0272985 -0.40500343 -1.27575
23.111805 -3.0919847 -0.5413686
3.2111511 -0.42959994 -1.2650844
25.344202 -3.3906431 0
3.4293947 -0.45879737 -1.2593181
25.2799 -3.3820405 0.59215385
3.6940737 -0.49420714 -1.2593403
25.178074 -3.3684177 1.1846166
3.9777205 -0.53215444 -1.2522655
25.511858 -3.4130726 1.7998565
4.3179679 -0.57767409 -1.2491885
21.328533 -2.8534117 2.0075808
4.7003207 -0.62882668 -1.2414386
17.710449 -2.3693709 2.0895512
5.1560326 -0.68979353 -1.2325699
17.374928 -2.3244834 2.4636426
5.6464262 -0.75540024 -1.2108778
11.249615 -1.505016 1.8647103
6.3565326 -0.85040092 -1.2083027
9.7734365 -1.3075273 1.8578162
2.1432097 -0.29968283 -1.2833931
7.2043862 -1.0073819 -1.1951525
2.2655957 -0.31679595 -1.2853376
8.2989111 -1.1604283 -1.1776829
2.3907201 -0.33429193 -1.2835354
9.7992392 -1.3702177 -1.1570934
2.5133905 -0.35144484 -1.2747374
11.886243 -1.6620412 -1.1197195
2.6764984 -0.37425205 -1.2792155
15.186807 -2.1235557 -1.0722965
2.8499417 -0.39850444 -1.2812204
20.893801 -2.9215589 -0.98384207
3.0303247 -0.42372721 -1.2780626
0 0 0
3.2159252 -0.44967952 -1.2679942
23.695473 -3.3133137 0
3.4340568 -0.48018065 -1.2620543
23.675226 -3.3104827 0.55501658
3.6873229 -0.5155946 -1.2580597
23.614349 -3.3019702 1.1119465
3.9877284 -0.55759996 -1.2564359
23.839294 -3.3334243 1.6832237
4.3125596 -0.60302079 -1.2486373
21.299391 -2.978272 2.0064659
4.6945901 -0.65643972 -1.2409321
17.70788 -2.4760747 2.090945
5.1345019 -0.71795219 -1.2284198
17.354942 -2.426724 2.4628074
5.6534686 -0.79051876 -1.2133728
11.260029 -1.5744784 1.8679527
6.3611064 -0.889467 -1.2101542
9.7616119 -1.3649563 1.8570757
2.149905 -0.31363717 -1.2884941
7.1963286 -1.0498308 -1.1948283
2.2688522 -0.33098972 -1.2882767
8.2899179 -1.2093681 -1.1774045
2.3817046 -0.34745312 -1.2797796
9.8086271 -1.4309238 -1.1591841
2.5130293 -0.3666113 -1.2756351
11.886024 -1.7339832 -1.1206484
2.677808 -0.39064991 -1.2809267
15.199604 -2.2173822 -1.0741102
2.8475268 -0.41540921 -1.2812204
20.921566 -3.0521262 -0.98598486
3.0222788 -0.44090274 -1.27575
22.998299 -3.3550887 -0.5396046
3.20767 -0.46794841 -1.2658119
0 0 0
3.4255679 -0.49973628 -1.2600023
0 0 0
3.6785736 -0.53664583 -1.256139
22.969639 -3.3509076 1.0825058
3.9805708 -0.58070242 -1.2552443
22.954384 -3.3486822 1.622117
4.3108077 -0.62887883 -1.2491885
21.257696 -3.1011622 2.0042365
4.6906118 -0.68428624 -1.2409321
17.702705 -2.582545 2.0921066
5.1378546 -0.74953187 -1.2302644
17.350037 -2.5310965 2.4641991
5.6467423 -0.82377052 -1.2129569
11.234865 -1.6389894 1.8653588
6.3459921 -0.92578006 -1.2083027
9.7533407 -1.4228585 1.8570757
2.1412032 -0.32535571 -1.2844135
7.1958261 -1.0934054 -1.195801
2.2651241 -0.34418547 -1.2872969
8.2825956 -1.2585399 -1.1774045
2.3900759 -0.36317191 -1.2854133
9.7921066 -1.4879102 -1.1582547
2.5143435 -0.38205433 -1.2774305
11.893244 -1.8071778 -1.1223205
2.6772299 -0.40680495 -1.2817823
15.207875 -2.3108358 -1.0756449
2.8413992 -0.43175045 -1.2795936
16.66835 -2.5327549 -0.78623515
3.0159602 -0.45827496 -1.2742083
22.987869 -3.4930055 -0.5398367
3.2066784 -0.48725459 -1.2665393
22.966381 -3.4897404 0
3.4225421 -0.52005506 -1.2600023
22.95624 -3.4881995 0.53909397
3.6771977 -0.55874997 -1.2567792
22.967127 -3.4898536 1.0833442
3.9732797 -0.60373962 -1.2540528
22.949886 -3.4872339 1.6232331
4.3070002 -0.65444845 -1.2491885
21.223169 -3.2248595 2.0027504
4.6807303 -0.71123672 -1.2394125
17.694921 -2.6887424 2.0930357
5.131392 -0.77971476 -1.2298032
17.344501 -2.6354961 2.465591
5.6320839 -0.85579485 -1.2108778
11.203479 -1.702368 1.8617921
6.3501024 -0.96489775 -1.2101542
9.7524977 -1.4818915 1.8585567
2.1477897 -0.3390238 -1.2895143
7.1894093 -1.1348321 -1.195801
2.2631042 -0.35722592 -1.2872969
8.2732544 -1.3059146 -1.1771262
2.3757348 -0.37500441 -1.2788407
9.8206558 -1.5501685 -1.1626686
2.5103359 -0.3962509 -1.2765328
11.910177 -1.8799948 -1.1249214
2.6748426 -0.42221791 -1.2817823
15.200226 -2.3993216 -1.0760634
2.8406701 -0.4483934 -1.2804071
15.343152 -2.4218822 -0.72437239
3.0041561 -0.4741993 -1.2703542
22.98317 -3.6278417 -0.54020804
3.2056592 -0.50600612 -1.2672668
22.961704 -3.6244535 0
3.423203 -0.54034489 -1.2613703
22.951569 -3.6228538 0.53946531
3.6776619 -0.58051068 -1.2580597
22.960459 -3.6242571 1.0839964
3.9753942 -0.62750709 -1.2558399
22.941246 -3.6212244 1.6240703
4.3031597 -0.6792441 -1.2491885
21.180641 -3.3433168 2.0005209
4.6899347 -0.74029565 -1.2429582
17.692879 -2.7927814 2.0946617
5.1287389 -0.80955994 -1.2302644
17.332947 -2.7359667 2.4661477
5.6367235 -0.88974416 -1.2129569
11.172046 -1.7634823 1.8582256
6.3483229 -1.0020685 -1.2108948
9.7340946 -1.536505 1.8567054
2.1407087 -0.35055447 -1.2864537
7.182754 -1.176221 -1.195801
2.264451 -0.37081805 -1.2892565
8.2714596 -1.3545034 -1.1779612
2.3717928 -0.38839597 -1.2779016
9.7939224 -1.6038163 -1.1605779
2.5062485 -0.41041392 -1.2756351
11.88736 -1.9466298 -1.1238067
2.6723664 -0.4376168 -1.2817823
15.231441 -2.4942439 -1.0792722
2.8380404 -0.46474692 -1.2804071
0 0 0
3.0141237 -0.49358168 -1.27575
22.969786 -3.7614467 -0.54039377
3.1990147 -0.52385873 -1.2658119
22.958214 -3.7595515 0
3.4200342 -0.56005204 -1.2613703
22.94611 -3.7575693 0.5398367
3.6723874 -0.60137647 -1.2574195
22.949062 -3.7580531 1.0844623
3.9622939 -0.6488505 -1.2528613
22.937729 -3.7561972 1.6253258
4.295382 -0.70339572 -1.2480861
21.135485 -3.4610684 1.9981056
4.6817746 -0.76666993 -1.2419451
17.688263 -2.896564 2.0960557
5.1220703 -0.83877116 -1.2298032
17.305174 -2.8338308 2.4644773
5.6372972 -0.92314285 -1.2142043
11.136385 -1.8236529 1.8540105
6.3540835 -1.040521 -1.2131166
9.7289629 -1.5931787 1.857446
2.1419189 -0.3642014 -1.2884941
7.1871085 -1.2220607 -1.1977465
2.2604244 -0.38435146 -1.2882767
8.2806034 -1.4079931 -1.1804663
2.3745987 -0.40376511 -1.2807186
9.7898169 -1.6646124 -1.1612747
2.5019326 -0.42541635 -1.2747374
11.881137 -2.0202103 -1.1243641
2.666079 -0.45332703 -1.280071
15.229688 -2.5895813 -1.0802488
2.8369496 -0.48238099 -1.2812204
15.281816 -2.5984449 -0.72288167
3.0110524 -0.51198459 -1.27575
22.924698 -3.8980031 -0.53988314
3.195755 -0.54339051 -1.2658119
22.926931 -3.8983829 0
3.4184017 -0.58124828 -1.2620543
22.914843 -3.8963275 0.53965104
3.6686451 -0.62379843 -1.2574195
22.86462 -3.8877878 1.0815741
3.9657848 -0.67432261 -1.2552443
22.914356 -3.8962445 1.6253258
4.294795 -0.73026592 -1.2491885
21.096281 -3.5871081 1.9964336
4.6808186 -0.79590344 -1.2429582
17.683947 -3.0068915 2.0976818
5.1226068 -0.87102294 -1.2311865
17.234823 -2.9305246 2.4569621
5.6354108 -0.95821756 -1.215036
11.136711 -1.8936317 1.8559558
6.3398581 -1.0779984 -1.2116354
9.7132359 -1.6515911 1.8563349
2.1397858 -0.37653184 -1.2884941
7.174119 -1.2624087 -1.1967738
2.2530215 -0.39645758 -1.2853376
8.295763 -1.4597812 -1.1838065
2.3739727 -0.41774103 -1.2816575
9.7898483 -1.7226911 -1.1624362
2.5047212 -0.44074848 -1.2774305
11.869304 -2.0886068 -1.1243641
2.6705453 -0.46992809 -1.2834938
0 0 0
2.8341241 -0.49871254 -1.2812204
15.282335 -2.689188 -0.72362703
3.0080535 -0.52931839 -1.27575
17.025757 -2.9959726 -0.40136111
3.1907372 -0.56146473 -1.2650844
17.073677 -3.004405 0
3.4205501 -0.60190421 -1.2641064
17.049385 -3.0001304 0.40191814
3.6668577 -0.64524621 -1.2580597
16.982342 -2.988333 0.80412322
3.9693565 -0.69847608 -1.2576272
17.12051 -3.012646 1.2155763
4.2886243 -0.75465667 -1.2486373
17.0077 -2.9927955 1.611118
4.6761565 -0.82284963 -1.2429582
17.057894 -3.0016277 2.0254362
5.119422 -0.9008497 -1.2316477
17.016748 -2.9943874 2.4282923
5.6317244 -0.99099809 -1.2154518
11.065365 -1.94714 1.8459044
6.3529005 -1.1179013 -1.2153383
9.688077 -1.7047826 1.8533726
2.1408305 -0.39021292 -1.2905346
7.1779232 -1.3083326 -1.1987193
2.2557037 -0.41115105 -1.2882767
8.2691555 -1.5072335 -1.1813015
2.3800631 -0.43381825 -1.2863523
9.7771893 -1.7821054 -1.1622039
2.5072572 -0.45700213 -1.2801236
11.877873 -2.1650007 -1.1264077
2.6694033 -0.4865568 -1.2843493
15.241062 -2.7780149 -1.083318
2.8310249 -0.51601583 -1.2812204
15.291175 -2.7871492 -0.7248382
3.0029483 -0.54735261 -1.2749791
16.269491 -2.9654686 -0.38395303
3.187248 -0.58094525 -1.2650844
16.32897 -2.9763098 0
3.4020181 -0.62009174 -1.2586341
16.289164 -2.969054 0.38441721
3.6628478 -0.66763365 -1.2580597
16.224762 -2.9573157 0.76909244
3.9650159 -0.72271037 -1.2576272
16.344152 -2.9790771 1.1617243
4.2820435 -0.78049552 -1.2480861
16.246611 -2.961298 1.5407058
4.6710429 -0.85139918 -1.2429582
16.306391 -2.9721942 1.938323
5.1176524 -0.93280345 -1.2325699
16.261633 -2.9640362 2.3230777
5.6178675 -1.0239786 -1.2137885
10.952303 -1.9962953 1.8290439
6.3420863 -1.1559832 -1.2145978
9.6600809 -1.7607597 1.8500398
2.1351664 -0.40190023 -1.2884941
7.1586318 -1.3474621 -1.1967738
2.2498713 -0.423491 -1.2863173
8.2836933 -1.5592312 -1.1846415
2.3809958 -0.44817245 -1.2882301
9.7862844 -1.8420625 -1.1645269
2.4993141 -0.4704434 -1.2774305
11.888691 -2.2377963 -1.1286371
2.6594505 -0.50058573 -1.2809267
15.25422 -2.8712864 -1.0854107
2.8298016 -0.53265071 -1.2820339
15.382854 -2.895499 -0.72996241
3.0088141 -0.56634605 -1.2788334
15.568338 -2.9304125 -0.36779827
3.1893418 -0.6003266 -1.2672668
15.625602 -2.9411912 0
3.409472 -0.64176148 -1.2627383
15.589952 -2.9344811 0.36830893
3.6608036 -0.68906939 -1.2587
15.528141 -2.9228463 0.7368567
3.9589114 -0.74518192 -1.2570316
15.652242 -2.9462056 1.1137319
4.279366 -0.80550075 -1.2486373
15.561954 -2.9292107 1.4773535
4.6622591 -0.87757236 -1.2419451
15.61745 -2.9396567 1.8584112
5.112195 -0.96226329 -1.2325699
15.563066 -2.9294202 2.2256563
5.62918 -1.0595748 -1.217531
10.905713 -2.0527713 1.8232074
6.3411179 -1.1935823 -1.2157087
9.6092176 -1.8087333 1.8422636
2.1327438 -0.41456342 -1.2884941
7.1582589 -1.3914245 -1.1980708
2.2507417 -0.43749988 -1.2882767
8.2567968 -1.6049588 -1.1821364
2.3678937 -0.46027192 -1.2825963
9.7751808 -1.9001027 -1.1645269
2.4929698 -0.48458424 -1.2756351
11.798966 -2.2934868 -1.1213915
2.6564331 -0.51635832 -1.2809267
0 0 0
2.8265908 -0.54943365 -1.2820339
14.914342 -2.8990543 -0.708534
2.9999659 -0.58313429 -1.2765208
14.926528 -2.9014232 -0.35303622
3.1802368 -0.61817545 -1.2650844
14.979631 -2.9117455 0
3.4092932 -0.66269946 -1.2641064
14.954005 -2.9067643 0.35368612
3.6603701 -0.71150386 -1.2599804
14.902575 -2.8967671 0.70797497
3.9562938 -0.76902562 -1.2576272
14.999938 -2.9156926 1.0685297
4.2801728 -0.8319813 -1.2502911
14.922682 -2.9006755 1.4182742
4.660768 -0.90596151 -1.2429582
14.971842 -2.9102314 1.7836102
5.1140361 -0.99406791 -1.2344143
14.921336 -2.900414 2.1363072
5.6055098 -1.0896007 -1.2137885
10.906899 -2.1200867 1.8254771
6.3262057 -1.2296898 -1.2142274
9.58288 -1.8627234 1.839301
2.126873 -0.42653552 -1.2864537
7.1498761 -1.4338778 -1.1980708
2.2498157 -0.45119116 -1.2892565
8.2723722 -1.6589898 -1.1857549
2.3685834 -0.47500953 -1.2844743
9.769577 -1.9592479 -1.1652238
2.4900503 -0.4993692 -1.2756351
11.863248 -2.3791249 -1.1288229
2.6639571 -0.53424549 -1.2860606
0 0 0
2.8232808 -0.56619722 -1.2820339
14.326858 -2.8731916 -0.68142241
2.9946432 -0.60056323 -1.27575
14.342484 -2.8763254 -0.33962038
3.1819925 -0.63813531 -1.2672668
14.373803 -2.8826063 0
3.4053009 -0.68291885 -1.2641064
14.354247 -2.8786845 0.33989891
3.6486526 -0.73172206 -1.2574195
14.317063 -2.8712275 0.6809566
3.9535322 -0.79286444 -1.2582229
14.399431 -2.8877459 1.0269549
4.2827001 -0.85887766 -1.2524962
14.342893 -2.8764074 1.3647684
4.6553097 -0.93360299 -1.2429582
14.370004 -2.8818443 1.7139198
5.1137714 -1.0255456 -1.2357978
14.334895 -2.8748035 2.0547519
5.6027813 -1.1236144 -1.2146202
10.882518 -2.1824436 1.8235316
6.3187976 -1.2672085 -1.2142274
9.6333237 -1.9319229 1.8511508
2.1294353 -0.43982217 -1.2895143
7.1627593 -1.4794253 -1.2016374
2.2420568 -0.46308351 -1.2863173
8.2626801 -1.7066073 -1.1857549
2.3623497 -0.48792925 -1.2825963
9.7678576 -2.0174928 -1.1663854
2.4906335 -0.51442552 -1.2774305
11.863 -2.450232 -1.1301234
2.6537542 -0.54811716 -1.282638
0 0 0
2.8217621 -0.58281815 -1.2828474
13.777895 -2.8457422 -0.65608102
2.98752 -0.61705446 -1.2742083
13.800901 -2.8504939 -0.3271794
