# .PCD v0.7 - Point Cloud Data file format
VERSION 0.7
FIELDS x y z
SIZE 4 4 4
TYPE F F F
COUNT 1 1 1
WIDTH 1616
HEIGHT 1
VIEWPOINT 0 0 0 1 0 0 0
POINTS 1616
DATA ascii
1.7691326 1.7707455 -0.57032228
2.5771952 2.8981872 0.41698104
1.8933271 1.9440266 -0.56671476
2.5721512 2.8911495 0.49990982
2.0271142 2.1306918 -0.55720335
2.5694323 2.887356 0.5836339
2.2655175 2.4633217 -0.5710091
2.5712202 2.8898504 0.66988033
1.7630025 1.7402898 -1.2752317
2.3604879 2.5635643 -0.5204069
1.8313804 1.8345076 -1.2735815
2.6067193 2.9028463 -0.504085
1.903357 1.9336842 -1.2703902
2.5558522 2.8327565 -0.40931508
1.9832828 2.0438139 -1.2684535
2.6030195 2.8977485 -0.33403942
2.0767484 2.1726 -1.2706587
2.6046631 2.9000132 -0.25056526
1.6461378 1.5792623 -0.86878955
2.6039917 2.8990881 -0.16704819
1.7129556 1.6713303 -0.8625766
2.6021876 2.8966022 -0.083094649
1.7671479 1.7460018 -0.84241962
2.6051035 2.90062 0
2.3810091 2.5918403 -1.1656047
2.5963156 2.8885112 0.082862541
1.5951003 1.5089375 -0.62999022
2.6016448 2.8958542 0.16686186
1.5855117 1.4957255 -0.57668555
2.6023192 2.8967836 0.25028622
1.5716262 1.4765927 -0.52315974
2.6030195 2.8977485 0.33403942
1.7807539 1.7647494 -0.5708288
2.6036899 2.8986721 0.41883945
1.8979794 1.9262744 -0.56394804
2.5974131 2.8900232 0.50185823
2.0374322 2.1184263 -0.55637175
2.5946429 2.8862062 0.58590358
2.2812576 2.4543929 -0.57137942
2.5975664 2.8902345 0.67284274
1.7618027 1.7177365 -1.2640097
2.3798957 2.5591681 -0.52170384
1.840892 1.8254035 -1.2726018
2.6234035 2.8906641 -0.504085
1.9155165 1.9269924 -1.2713292
2.5674298 2.8144648 -0.4083859
1.9929136 2.0323558 -1.2666581
2.6255689 2.8936119 -0.33496836
2.0806742 2.1518273 -1.2638135
2.6295991 2.8990982 -0.25154185
1.6573781 1.5755795 -0.87041646
2.6253855 2.893362 -0.16742085
1.7258395 1.6687784 -0.86488914
2.6259384 2.8941147 -0.083373182
1.7804918 1.7431786 -0.84460199
2.6253271 2.8932827 0
2.4025817 2.5900512 -1.1697088
2.6200197 2.8860576 0.083141074
1.5970427 1.4934428 -0.62614882
2.6230199 2.8901417 0.16723451
1.5850663 1.4771389 -0.57191956
2.6236935 2.8910587 0.25084427
1.5721458 1.4595499 -0.51930082
2.6267481 2.8952169 0.33515415
1.7908969 1.7573434 -0.5708288
2.6250541 2.892911 0.41976863
1.9078987 1.916622 -0.56348687
2.6210587 2.8874719 0.50352836
2.0496082 2.1095359 -0.55637175
2.6170733 2.8820465 0.58752477
2.2976913 2.4472606 -0.57212001
2.6211596 2.887609 0.67506456
0.5 0 0
2.3981373 2.5530498 -0.52267659
1.8659483 1.83724 -1.2863173
2.643563 2.8831544 -0.50492007
1.926592 1.9188076 -1.2713292
2.5895321 2.8104811 -0.40954739
2.0035286 2.0222893 -1.2657604
2.6493292 2.8909099 -0.33608305
2.0962777 2.1470397 -1.2663804
2.6522138 2.8947899 -0.25223941
1.6631635 1.5644886 -0.86797601
2.6515512 2.8938987 -0.16816619
1.7354308 1.6616904 -0.86488914
2.6521163 2.8946588 -0.083744556
1.7893994 1.7342796 -0.84387457
2.6538894 2.8970437 0
2.4197106 2.5820665 -1.171077
2.6437654 2.8834264 0.083419599
1.5988433 1.4779762 -0.62230742
2.6479752 2.8890889 0.16788669
1.591278 1.4678005 -0.57072806
2.6486428 2.8899868 0.25182086
1.5770936 1.448722 -0.51764697
2.650517 2.8925078 0.33626884
1.799843 1.7483264 -0.57032228
2.6511631 2.8933768 0.42162704
1.9189146 1.9084812 -0.56348687
2.6447446 2.8847437 0.50519836
2.0664015 2.1068556 -0.55803502
2.6359932 2.8729727 0.58817327
2.3117571 2.436866 -0.57212001
2.6412742 2.8800759 0.67617548
1.7859412 1.7083613 -1.2680904
2.422749 2.5543549 -0.52527052
0.5 0 0
2.6368124 2.8387361 -0.49935311
0.5 0 0
2.6205089 2.8170769 -0.41233501
2.017652 2.0161872 -1.2675557
2.6748295 2.8892412 -0.33738354
1.6067244 1.4702734 -0.87106431
2.6789529 2.8947194 -0.2533555
1.6713282 1.5560989 -0.86716259
2.675895 2.8906569 -0.16872519
1.7386105 1.6454829 -0.86026406
2.6740656 2.8882263 -0.083930239
1.7985479 1.725109 -0.84314704
2.6782598 2.8937984 0
0.5 0 0
2.6680532 2.880239 0.083698131
1.601897 1.4638603 -0.61910623
2.6734922 2.8874645 0.16853885
1.5919316 1.4506212 -0.56655777
2.6729536 2.8867493 0.25265795
1.5833591 1.4392328 -0.5165444
2.6772246 2.8924232 0.33775511
1.8090312 1.7390361 -0.56981575
2.675463 2.8900828 0.42302087
1.9395779 1.9124663 -0.56717581
2.6677809 2.8798773 0.50659013
2.0788765 2.097523 -0.55803502
2.6601255 2.8697071 0.59011871
2.3368239 2.4402041 -0.57545274
2.6689653 2.8814509 0.67950821
1.7947162 1.6995586 -1.2670703
2.4422121 2.5495186 -0.52656746
1.8693755 1.7975628 -1.2696627
2.6123197 2.7728171 -0.48988935
1.9467912 1.8991857 -1.2694513
2.6980903 2.885407 -0.42418239
0.5 0 0
2.6986735 2.8861725 -0.33849826
0.5 0 0
2.7016332 2.8900578 -0.25405309
0.5 0 0
2.7009814 2.8892021 -0.16937736
1.7637234 1.6588746 -0.87105584
2.6991448 2.8867912 -0.084255189
1.8152353 1.7264937 -0.84751195
2.6997375 2.8875692 0
2.4736886 2.5908372 -1.1854417
2.6930866 2.8788385 0.084023081
1.6332734 1.4876345 -0.63191092
2.6985602 2.8860238 0.16919102
1.6002679 1.4443085 -0.56655777
2.6967971 2.8837092 0.25349501
1.5904649 1.4314404 -0.51599318
2.6986735 2.8861725 0.33849826
1.8178526 1.7299294 -0.56930923
2.6980903 2.885407 0.42418239
1.9411337 1.891759 -0.56348687
2.6903317 2.8752222 0.50798184
2.0861883 2.0821705 -0.55637175
2.6909683 2.8760579 0.59400964
2.3603754 2.4420927 -0.57841516
2.6950524 2.8814189 0.68247068
1.8103282 1.6984279 -1.2721713
2.4613667 2.5422943 -0.52754021
1.8867213 1.7974473 -1.2755408
2.5590513 2.6689117 -0.47374526
0.5 0 0
2.7290232 2.8892264 -0.4267377
2.0414729 1.9980342 -1.2675557
2.7247782 2.8837242 -0.33979875
1.6009068 1.4269789 -0.85309547
2.7253404 2.8844531 -0.25475064
1.6941773 1.5478747 -0.87041646
2.7283528 2.8883576 -0.1701227
1.7760882 1.6540464 -0.87259763
2.7252879 2.8843851 -0.084580146
0.5 0 0
2.7258878 2.8851626 0
0.5 0 0
2.7179599 2.8748865 0.084301613
1.6145626 1.4446794 -0.61654532
2.7246916 2.8836122 0.16984318
1.6032392 1.4300022 -0.56357902
2.7241216 2.8828733 0.25461113
1.6074094 1.4354074 -0.51985204
2.7235618 2.8821476 0.33961293
1.8283958 1.7218468 -0.56930923
2.7217426 2.8797896 0.42534387
1.9502857 1.8798387 -0.56256467
2.7163234 2.8727653 0.50993031
2.0976832 2.070893 -0.55595589
2.7157295 2.8719957 0.59595507
2.3680558 2.4213459 -0.57619339
2.718616 2.875737 0.68432218
1.8211466 1.6922091 -1.2731913
2.4832625 2.5402896 -0.52948564
1.893831 1.7853079 -1.2726018
2.5512309 2.6273477 -0.46845669
1.9735751 1.8874493 -1.2732069
2.7529602 2.8857355 -0.42813149
2.0474553 1.9820796 -1.2630672
2.7499273 2.8818507 -0.3410992
0.5 0 0
2.7517378 2.8841698 -0.25586674
1.6929528 1.5280101 -0.86309522
2.752327 2.8849244 -0.1706817
1.7765075 1.6350325 -0.86643082
2.7492454 2.8809774 -0.084858671
1.8218745 1.6931415 -0.83878219
2.7523131 2.8849065 0
0.5 0 0
2.7406325 2.8699453 0.084533721
0.5 0 0
2.7449503 2.8754761 0.1701227
1.606757 1.4176052 -0.56119603
2.7492824 2.8810246 0.25558773
1.6192071 1.433552 -0.52150589
2.7487018 2.8802812 0.34091341
1.8382902 1.7141677 -0.56930923
2.7468481 2.8779066 0.42696998
1.9610879 1.871455 -0.56256467
2.741363 2.8708811 0.51187873
2.1083794 2.0601153 -0.55554008
2.7419491 2.8716319 0.59854901
2.3831792 2.4120963 -0.57656366
2.7423983 2.8722069 0.686544
1.8308713 1.6845716 -1.2731913
2.4978609 2.5288246 -0.52948564
1.9062525 1.7799867 -1.2745613
2.5687852 2.618598 -0.46901339
1.9800431 1.8733882 -1.2694513
2.7744696 2.8789463 -0.42906073
2.0621696 1.9773412 -1.2657604
2.7738955 2.8782196 -0.34221393
0.5 0 0
2.7782068 2.8836768 -0.25698286
1.703999 1.523981 -0.86472219
2.7750983 2.8797419 -0.17114753
1.7767512 1.6160681 -0.86026406
2.7732387 2.8773882 -0.085137203
1.8292949 1.6825763 -0.83732724
2.7750909 2.8797328 0
0.5 0 0
2.767041 2.8695436 0.084905095
1.624082 1.4228247 -0.61270386
2.7713828 2.8750391 0.17086802
1.6160871 1.4127051 -0.56179178
2.7744963 2.8789802 0.25656432
1.7311321 1.5583252 -0.56946677
2.7751298 2.8797817 0.34239969
1.8493403 1.707949 -0.56981575
2.7732382 2.8773875 0.42882839
1.9742556 1.8660625 -0.56348687
2.7689109 2.8719103 0.51438379
2.1250694 2.0569575 -0.55720335
2.7657921 2.8679626 0.60049444
2.3982592 2.4027519 -0.57693398
2.7698693 2.8731234 0.68987674
1.8408444 1.6766443 -1.2731913
2.5177627 2.5230894 -0.53078264
1.9135236 1.7675252 -1.2716222
2.5904729 2.6140089 -0.4704051
1.9900311 1.8631932 -1.2685122
2.8026798 2.8793609 -0.43115142
2.0749922 1.9694318 -1.2666581
2.7983975 2.874006 -0.34332862
2.1664486 2.0837927 -1.2629578
2.8015094 2.8778973 -0.25768042
1.7107391 1.5139556 -0.86309522
2.8008816 2.8771124 -0.17179969
1.7863188 1.6084633 -0.86026406
2.8002639 2.8763399 -0.085508578
1.8450741 1.6819332 -0.84096462
2.7996347 2.8755531 0
1.6444465 1.4310607 -0.66693926
2.7927711 2.8669708 0.085230045
1.6384224 1.423528 -0.61590511
2.7971382 2.8724315 0.17152019
1.6459142 1.432896 -0.57251531
2.7977712 2.8732231 0.25726187
1.7415587 1.5524935 -0.57001805
2.7959101 2.8708959 0.34295705
1.8594519 1.6999118 -0.56981575
2.7977171 2.8731554 0.43022221
1.9853032 1.8572812 -0.56348687
2.7945721 2.8692229 0.51633227
2.1335816 2.0426943 -0.55595589
2.7913995 2.8652556 0.60276413
2.4100292 2.388375 -0.57619339
2.7917893 2.8657429 0.69135797
1.8483142 1.6662199 -1.2711509
2.5335019 2.5129611 -0.53110689
1.9247764 1.7607106 -1.2726018
0.5 0 0
2.000737 1.854581 -1.2685122
2.8254724 2.8737726 -0.43231291
2.0851843 1.9589393 -1.2657604
2.8249328 2.8731058 -0.3448149
2.1818333 2.0783765 -1.2655247
2.8268309 2.8754513 -0.25865701
1.7205876 1.5083779 -0.86390865
2.8249538 2.8731318 -0.17235871
1.7920783 1.5967247 -0.85795152
2.8255954 2.8739247 -0.085833527
1.8512224 1.6698139 -0.83878219
2.8262222 2.8746994 0
1.9411322 1.7809227 -0.83384514
2.8155334 2.8614902 0.085462153
1.6179965 1.3815979 -0.60053945
2.8236969 2.8715787 0.17226553
1.6601526 1.4336935 -0.57549405
2.8230658 2.8707986 0.25823846
1.7504792 1.5453174 -0.57001805
2.8236802 2.871558 0.34462911
1.8667854 1.6890463 -0.56880271
2.8242228 2.8722286 0.43208063
1.9947509 1.8471836 -0.56302577
2.8172879 2.8636584 0.51772398
2.145319 2.0332525 -0.55595589
2.8103459 2.8550799 0.60341263
2.4237528 2.3773353 -0.57619339
2.8181465 2.8647196 0.69432044
1.860359 1.6608503 -1.2731913
2.5533817 2.5069556 -0.53240383
1.9352006 1.7522238 -1.2726018
2.8530664 2.8728385 -0.52189916
2.0117168 1.8456419 -1.2685122
2.8512974 2.8706784 -0.43393901
2.0945172 1.9467319 -1.263965
2.8469901 2.8654196 -0.34555805
2.1964293 2.0711555 -1.2672361
2.8514402 2.8708527 -0.2594941
1.7248869 1.4954537 -0.86065483
2.8533571 2.873193 -0.17319719
1.7956845 1.5818899 -0.85409731
2.8502121 2.8693535 -0.08611206
1.8622891 1.6632068 -0.83950967
2.8495781 2.8685794 0
1.9528668 1.7737924 -0.8345291
2.8438773 2.8616192 0.085879952
1.6225742 1.3705411 -0.59861875
2.8470275 2.8654654 0.17273137
1.6662211 1.4238292 -0.57430255
2.8463831 2.8646786 0.25893602
1.7620645 1.5408435 -0.57112062
2.8469901 2.8654196 0.34555805
1.8767852 1.680905 -0.56880271
2.8487799 2.8676047 0.43347442
2.0118527 1.8458078 -0.5653314
2.8430269 2.8605809 0.51967239
2.1598358 2.0264792 -0.55678755
2.8372536 2.8535323 0.6060065
2.4390726 2.3673968 -0.57656366
2.8450701 2.8630755 0.69728285
1.8666085 1.6490146 -1.2701308
2.5715637 2.4996469 -0.53337657
1.9419304 1.7399015 -1.2696627
2.8784192 2.8699133 -0.52384758
2.0302086 1.8464224 -1.2750849
2.8779316 2.8693249 -0.43579742
2.1000004 1.930636 -1.2594764
2.8736191 2.8641212 -0.34704429
2.2313991 2.0891883 -1.2843493
2.8781195 2.8695517 -0.26061019
1.7288158 1.4827473 -0.85740083
2.8775144 2.8688214 -0.1737562
1.8047734 1.5744015 -0.85409731
2.8743534 2.8650074 -0.086390585
1.868279 1.6510302 -0.83732724
2.8749933 2.8657794 0
1.9678553 1.7711837 -0.83726531
2.8692501 2.8588493 0.086204901
1.6256129 1.3582177 -0.59605783
2.8749647 2.8657448 0.17356986
1.6756202 1.418559 -0.5748983
2.8730273 2.8634071 0.26005214
1.7709177 1.5335494 -0.57112062
2.8736191 2.8641212 0.34704429
1.883974 1.6699686 -0.56778973
2.8766642 2.8677955 0.43556514
2.0150073 1.8280795 -0.56256467
2.8695729 2.8592389 0.52189916
2.1702309 2.0153799 -0.55637175
2.8662422 2.8552198 0.60924894
2.4489126 2.3516502 -0.57545274
2.8702991 2.8601151 0.699875
1.8818976 1.6474656 -1.2752317
2.5901656 2.4918458 -0.53434926
1.9589534 1.7393296 -1.2755408
2.9043176 2.8663704 -0.525796
2.0229812 1.815662 -1.2600617
2.9051299 2.8673389 -0.43765584
2.0815663 1.8855059 -1.2361362
2.9020913 2.8637164 -0.34871635
2.1833563 2.0068574 -1.2398549
2.9027994 2.8645606 -0.26144725
1.7458124 1.4852281 -0.86309522
2.904768 2.8669076 -0.17450154
1.8223954 1.5765285 -0.8594932
2.901593 2.8631222 -0.086761959
1.8780524 1.6428814 -0.83732724
2.90224 2.8638937 0
1.9843791 1.7696416 -0.84068555
2.8951681 2.8554626 0.086529851
1.6348706 1.3529658 -0.59669805
2.8983483 2.8592541 0.1740357
1.6840175 1.4115576 -0.5748983
2.8989527 2.8599746 0.26102871
1.7762891 1.5215616 -0.56946677
2.9033711 2.8652422 0.34890214
1.898833 1.6676557 -0.56981575
2.8987467 2.8597291 0.43649435
2.0308316 1.8250211 -0.56440914
2.8941352 2.8542314 0.52356923
2.1859331 2.0099294 -0.55761921
2.8920219 2.851712 0.61151862
2.4590442 2.3355262 -0.57434183
2.8960714 2.8565397 0.70246708
0.5 0 0
2.6049159 2.4793987 -0.53434926
0.5 0 0
2.9289756 2.8611114 -0.52746612
2.111444 1.8981338 -1.3239099
2.9285309 2.8605876 -0.43881735
0.5 0 0
2.9267757 2.8585203 -0.34983107
2.3122292 2.1346405 -1.3254211
2.9275031 2.8593771 -0.26228434
0.5 0 0
2.9269102 2.8586786 -0.1748742
0.5 0 0
2.927599 2.8594899 -0.087086909
0.5 0 0
2.926959 2.858736 0
0.5 0 0
2.9159529 2.845772 0.086669117
1.6575946 1.3635408 -0.60438085
2.9230313 2.8541095 0.1745947
1.6899018 1.4015957 -0.57370681
2.9249208 2.8563354 0.26200533
1.7902728 1.5198236 -0.5716719
2.9280643 2.860038 0.35001683
1.9087046 1.6593255 -0.56981575
2.9272454 2.8590734 0.43858507
2.0340776 1.8070033 -0.56164241
2.9187212 2.8490329 0.52523935
2.1952984 1.9969069 -0.55678755
2.9165659 2.8464942 0.61346406
2.4347091 2.2789106 -0.56323272
2.9206126 2.8512607 0.70468891
0.5 0 0
2.9285684 2.8284619 -0.61249137
0.5 0 0
2.9552379 2.8595231 -0.52969289
0.5 0 0
2.9587033 2.863559 -0.44137269
0.5 0 0
2.9504852 2.8539877 -0.35094577
0.5 0 0
2.9538319 2.8578856 -0.26340047
0.5 0 0
2.9558518 2.8602381 -0.17580587
0.5 0 0
2.9513459 2.8549902 -0.087365441
0.5 0 0
2.9533093 2.8572769 0
1.6973653 1.3945262 -0.66899139
2.9409256 2.8428543 0.086994067
1.6639571 1.3556169 -0.60374063
2.9506462 2.8541751 0.1754332
1.7001983 1.3978257 -0.5748983
2.9512322 2.8548579 0.26312143
1.7949833 1.5082183 -0.57001805
2.9517825 2.8554988 0.35113156
1.9179496 1.6514324 -0.56981575
2.9522331 2.8560236 0.44021118
2.0466807 1.8013608 -0.56256467
2.9449162 2.8475018 0.52746612
2.2013264 1.9814708 -0.55512428
2.943996 2.8464301 0.61638224
2.4205189 2.2367561 -0.55545634
2.9480214 2.8511183 0.70802164
0.5 0 0
2.9911177 2.8657045 -0.6238398
0.5 0 0
2.9843538 2.8579235 -0.53219795
0.5 0 0
2.9826663 2.8559821 -0.44253418
0.5 0 0
2.980938 2.8539939 -0.35280359
0.5 0 0
2.9817152 2.8548882 -0.26451656
0.5 0 0
2.9824531 2.855737 -0.17645803
0.5 0 0
2.9766109 2.8490164 -0.087643974
0.5 0 0
2.974654 2.846765 0
0.5 0 0
2.9674284 2.8384531 0.087319016
1.6759456 1.3527714 -0.60566133
2.9772105 2.8497059 0.17608537
1.7074622 1.389027 -0.57430255
2.9790974 2.8518765 0.26423752
1.8066949 1.5031812 -0.57112062
2.983551 2.8569999 0.35317519
1.926742 1.6412797 -0.56930923
2.9813628 2.8544829 0.44230187
2.0653164 1.8006915 -0.5653314
2.9752586 2.8474605 0.53024954
2.2159657 1.9739937 -0.55595589
2.9704018 2.8418734 0.61865193
2.438015 2.2294321 -0.55656719
2.9744184 2.846494 0.71061379
0.5 0 0
3.0193117 2.8646464 -0.62675798
0.5 0 0
3.0125449 2.8569522 -0.53470308
0.5 0 0
3.0108812 2.8550603 -0.44462487
0.5 0 0
3.0091708 2.8531153 -0.35447565
0.5 0 0
3.0086579 2.8525324 -0.26563266
1.7802042 1.4556882 -0.86309522
3.0133731 2.8578937 -0.17748287
1.8686513 1.5562593 -0.86565995
3.0061836 2.849719 -0.088108189
0.5 0 0
3.0002551 2.8429778 0
0.5 0 0
2.9916587 2.8332031 0.087597549
1.693728 1.3573583 -0.61078322
3.0041375 2.8473923 0.17683071
1.7179641 1.3849167 -0.57549405
3.0060227 2.8495359 0.26535362
1.8127918 1.4927429 -0.57001805
3.0078554 2.85162 0.35428986
1.9348937 1.6315818 -0.56880271
3.0069456 2.8505852 0.443928
2.0756619 1.7916459 -0.5653314
3.0007734 2.8435671 0.53219795
2.2273068 1.9640775 -0.55595589
2.9932456 2.8350072 0.62027317
2.4521217 2.2197087 -0.55693752
3.0011556 2.8440018 0.7135762
1.9236054 1.6000673 -1.2701308
3.047576 2.8633585 -0.62967616
2.002069 1.6882565 -1.2696627
3.0368574 2.8513112 -0.53637314
2.0916815 1.7889769 -1.2732069
3.0365267 2.8509398 -0.446251
2.1691072 1.8759998 -1.2612718
3.033504 2.8475423 -0.35559034
2.2783768 1.998814 -1.2663804
3.0369818 2.8514509 -0.26688826
0.5 0 0
3.0377598 2.8523257 -0.17804188
1.8432444 1.5097451 -0.84407628
3.0292008 2.8427057 -0.08834029
1.9142004 1.5894964 -0.83077997
3.0312119 2.8449659 0
2.7636306 2.5442169 -1.239481
3.0185683 2.8307552 0.087968923
0.5 0 0
3.0351038 2.8493404 0.17785554
1.7233826 1.3750259 -0.57430255
3.0343294 2.84847 0.26660925
1.8239236 1.4880294 -0.57112062
3.0374751 2.8520055 0.35614771
1.9442674 1.6232902 -0.56880271
3.0325656 2.8464875 0.44555411
2.0769 1.7723632 -0.56210357
3.027642 2.8409536 0.53442472
2.2346897 1.9497117 -0.55470848
3.0160921 2.8279722 0.62189436
2.4609547 2.2040231 -0.5558266
3.0240271 2.8368905 0.7154277
1.9319247 1.590313 -1.2691107
3.0737669 2.8584569 -0.63194585
2.0050607 1.6715388 -1.2637848
3.0669851 2.850925 -0.53915662
2.09518 1.7716264 -1.2675732
3.0680213 2.8520758 -0.44880632
2.1790147 1.8647339 -1.2603741
3.0610173 2.8442969 -0.35707662
0.5 0 0
3.0632031 2.8467247 -0.26786485
1.7885811 1.4311138 -0.85740083
3.0653362 2.8490937 -0.17878722
1.8571194 1.5072334 -0.84715968
3.0553908 2.8380482 -0.08866524
1.9335806 1.5921521 -0.83659983
3.0534031 2.8358405 0
0.5 0 0
3.042012 2.8231895 0.088201031
0.5 0 0
3.0613256 2.8446395 0.17850772
1.7327982 1.3691608 -0.5748983
3.0591981 2.8422766 0.26744631
1.8314443 1.4787183 -0.5705694
3.0610173 2.8442969 0.35707662
1.9564641 1.6175668 -0.56981575
3.0600464 2.8432186 0.44741252
2.0899942 1.7658669 -0.56302577
3.0537329 2.8362069 0.53637314
2.24492 1.9379295 -0.55429262
3.0473559 2.8291245 0.62546104
2.4766297 2.1952689 -0.55656719
3.0539687 2.8364687 0.71913081
1.9448117 1.5856028 -1.2721713
3.0773904 2.8285468 -0.62870342
2.025522 1.674178 -1.2726018
3.0758531 2.8268595 -0.53748655
2.1128006 1.7699614 -1.2732069
3.0889134 2.8411927 -0.44950321
2.1960683 1.8613433 -1.2648627
3.0885792 2.8408258 -0.35856289
2.3007555 1.9762317 -1.2655247
3.0894561 2.8417881 -0.26884145
0.5 0 0
3.0916157 2.8441582 -0.17943938
1.8610671 1.4936975 -0.84407628
3.0816128 2.8331807 -0.088990197
1.9492767 1.5905029 -0.8402372
3.0796144 2.8309875 0
2.8075893 2.5324545 -1.2470055
3.0735328 2.8243132 0.088711664
2.788177 2.5111508 -1.1479396
3.0848877 2.8367746 0.17897354
1.7434726 1.3646439 -0.5760898
3.0881124 2.8403134 0.26870194
1.8376052 1.4679495 -0.56946677
3.0872381 2.839354 0.35837713
1.9660366 1.6088959 -0.56981575
3.0862374 2.8382559 0.44903862
2.0938904 1.7492087 -0.56072021
3.079855 2.8312514 0.53832161
2.2603412 1.9318794 -0.55554008
3.0773904 2.8285468 0.62870342
2.4869733 2.1805959 -0.5558266
3.083992 2.8357916 0.72283387
1.9541956 1.5770011 -1.2721713
3.0700488 2.787087 -0.62286711
2.03543 1.6650958 -1.2726018
3.0684159 2.7853162 -0.53247631
2.1184871 1.7551669 -1.2694513
3.0761023 2.7936518 -0.44439259
2.2082958 1.8525598 -1.2657604
3.1148415 2.8356624 -0.35986337
2.3149018 1.9681689 -1.2672361
3.1170943 2.8381054 -0.26995754
0.5 0 0
3.1165738 2.8375411 -0.17999837
1.869907 1.4855945 -0.84407628
3.1092236 2.8295703 -0.089361563
1.9549007 1.5777658 -0.83805472
3.1085711 2.8288627 0
2.8263991 2.5228612 -1.2490575
3.0983803 2.817811 0.088990197
2.8145986 2.5100644 -1.1537015
3.1125112 2.8331354 0.17971888
1.7515488 1.3572409 -0.5760898
3.1143894 2.8351722 0.26967853
1.8488996 1.4628129 -0.5705694
3.1188912 2.8400543 0.36042073
1.9729352 1.5973232 -0.56880271
3.1138079 2.8345416 0.45089704
2.1082006 1.7440115 -0.56210357
3.106009 2.8260841 0.54027003
2.2731009 1.9228374 -0.55595589
3.1061711 2.8262599 0.6316216
2.4985461 2.1673217 -0.55545634
3.1101015 2.8305221 0.72542596
1.9609069 1.566084 -1.2701308
3.064518 2.7491491 -0.61767924
2.0414262 1.6524003 -1.2696627
3.0614479 2.745858 -0.52774447
2.1261594 1.7432339 -1.2675732
3.0704684 2.755528 -0.44067577
2.222594 1.8466113 -1.2684535
3.1433544 2.8336613 -0.36153546
2.3262069 1.9576838 -1.2672361
3.1456444 2.8361163 -0.27121317
2.4342666 2.073523 -1.2625105
3.1451373 2.8355727 -0.18083689
1.8796991 1.4790298 -0.84484714
3.1363876 2.8261929 -0.089732938
1.9728589 1.5788966 -0.84314704
3.1398265 2.8298795 0
2.8434539 2.5121696 -1.2504256
3.1254764 2.8144963 0.089361563
2.8380635 2.5063913 -1.1581832
3.1424119 2.8326509 0.18065055
1.75674 1.3472183 -0.5748983
3.1415617 2.8317397 0.27079463
1.8573018 1.4550201 -0.5705694
3.1406376 2.830749 0.36116388
1.98343 1.5902287 -0.56930923
3.1409295 2.8310618 0.45275545
2.1195455 1.7361436 -0.56256467
3.1371026 2.8269594 0.54333186
2.2828107 1.9111634 -0.55554008
3.1345208 2.8241918 0.63453978
2.5096543 2.1543384 -0.55508602
3.137085 2.8269403 0.72838843
1.9699035 1.5576429 -1.2701308
3.0572848 2.7099307 -0.61216712
2.0533121 1.6460303 -1.2716222
3.0568326 2.7094514 -0.52356923
2.1385977 1.7364067 -1.2694513
3.0644844 2.7175601 -0.43695894
2.2295222 1.8327587 -1.2657604
3.1719332 2.8314226 -0.36320749
2.3374531 1.947132 -1.2672361
3.1742606 2.833889 -0.27246878
2.446178 2.0623467 -1.2625105
3.171025 2.8304603 -0.18148905
1.8856624 1.4683735 -0.84330547
3.1704628 2.8298645 -0.09033642
1.9627497 1.5500623 -0.83223492
3.1725552 2.8320818 0
2.8591754 2.4999962 -1.2511097
3.160857 2.8196852 0.09001147
2.8628652 2.5039062 -1.163305
3.171025 2.8304603 0.18148905
1.7657895 1.3413454 -0.57549405
3.1728916 2.8324382 0.27232927
1.8669798 1.4485757 -0.57112062
3.1787667 2.8386643 0.3641364
1.9899095 1.5788432 -0.56829625
3.1708264 2.83025 0.45507845
2.1308546 1.7282014 -0.56302577
3.165576 2.8246861 0.54583693
2.2924471 1.8994396 -0.55512428
3.1561627 2.8147109 0.63583672
2.5233793 2.1441562 -0.55545634
3.1641161 2.823139 0.73135084
1.9838727 1.5538701 -1.2742115
3.050149 2.670445 -0.606655
2.0594392 1.6330013 -1.2686831
3.0496118 2.6698825 -0.51883733
2.1464331 1.7240988 -1.2675732
3.0641015 2.6850557 -0.43417132
2.2416012 1.8237562 -1.2666581
3.2010648 2.8284798 -0.36487955
2.3502233 1.9375023 -1.2680918
3.2006745 2.8280711 -0.27344537
2.4621668 2.0547264 -1.264951
3.2029505 2.8304543 -0.18251388
1.8956255 1.4614601 -0.84407628
3.1954927 2.8226449 -0.090614952
1.9886481 1.5588708 -0.84169215
3.1962192 2.8234057 0
2.8765643 2.4886718 -1.2524778
3.1872075 2.8139689 0.09033642
2.9117043 2.5254693 -1.1799512
3.2001913 2.827565 0.18232755
1.7855936 1.3462378 -0.58085579
3.1979187 2.8251853 0.27316636
1.8742236 1.4390486 -0.5705694
3.20244 2.8299201 0.36506534
2.0005879 1.5713737 -0.56880271
3.1999207 2.8272817 0.45716918
2.1464567 1.7241236 -0.56487024
3.1946006 2.8217106 0.54834205
2.3023355 1.8873554 -0.55470848
3.1823587 2.8088911 0.63810641
2.5360665 2.1321123 -0.55545634
3.1957521 2.8229165 0.73542416
1.9856257 1.5378749 -1.2680904
3.0366914 2.6259062 -0.59984595
2.0748754 1.6302634 -1.2735815
3.0456812 2.6352124 -0.5149405
2.1587892 1.7171283 -1.2694513
3.0643408 2.6545281 -0.43161601
2.2533174 1.8149813 -1.2675557
3.2269945 2.8229024 -0.36618003
2.358839 1.9242139 -1.2663804
3.2307789 2.8268199 -0.2748405
2.4739678 2.0433919 -1.264951
3.2316992 2.8277726 -0.18335238
1.9053013 1.4547255 -0.84484714
3.2242069 2.8200166 -0.091032743
0.5 0 0
3.2263308 2.8222151 0
0.5 0 0
3.2186501 2.8142645 0.09084706
2.920943 2.5060871 -1.1773902
3.2275352 2.8234622 0.18307289
1.791999 1.3374383 -0.58026004
3.2266204 2.822515 0.27442196
1.8811527 1.4297276 -0.57001805
3.2297616 2.8257668 0.36655161
2.0096126 1.5627055 -0.56880271
3.2313404 2.8274012 0.45972449
2.1550069 1.7132132 -0.56440914
3.220439 2.8161161 0.55029047
2.3172526 1.881165 -0.55595589
3.2122028 2.8075905 0.64134878
2.5442154 2.1161101 -0.55434543
3.2215238 2.8172393 0.73801631
1.9983341 1.5327215 -1.2711509
3.010843 2.5684681 -0.59011871
2.0796473 1.6159009 -1.2696627
3.0405085 2.5988142 -0.51076531
2.1689506 1.7072537 -1.2694513
3.0897701 2.6492064 -0.43324214
2.2640581 1.804544 -1.2675557
3.2576201 2.8209088 -0.36803788
2.3702259 1.9131484 -1.2663804
3.2600594 2.8234041 -0.27609614
2.4847827 2.0303345 -1.2641375
3.2582092 2.8215115 -0.18400456
1.9100398 1.4424008 -0.8425346
3.2562697 2.8195274 -0.091543384
0.5 0 0
3.2542164 2.8174269 0
2.9068172 2.4620547 -1.2531618
3.2436905 2.8066595 0.091125585
0.5 0 0
3.2582092 2.8215115 0.18400456
1.8065866 1.3365735 -0.58323878
3.2544806 2.8176973 0.27553809
1.8909574 1.4228805 -0.5705694
3.2576201 2.8209088 0.36803788
2.0188603 1.5537189 -0.56880271
3.2550151 2.8182442 0.460886
2.1569827 1.6950113 -0.56164241
3.2495639 2.8126678 0.55279559
2.3270173 1.8689483 -0.55554008
3.2481318 2.8112025 0.64588821
2.5622334 2.1095626 -0.5558266
3.2519345 2.8150926 0.74171931
2.0074029 1.5238031 -1.2711509
3.0052216 2.5324776 -0.58525509
2.0904348 1.6077383 -1.2706425
3.0419569 2.5696127 -0.50798184
2.1778102 1.6960644 -1.2685122
3.1892662 2.7185247 -0.44718021
2.2734783 1.7927732 -1.2666581
3.2841144 2.8144047 -0.36933836
2.3840885 1.9045869 -1.2680918
3.286587 2.8169043 -0.2770727
2.4993663 2.0211186 -1.2657645
3.286144 2.8164563 -0.18474989
1.9237657 1.4392558 -0.84561795
3.2856081 2.8159146 -0.091961175
2.733882 2.2581861 -1.2403501
3.2877653 2.8180954 0
0.5 0 0
3.2785773 2.8088074 0.091729067
0.5 0 0
3.283334 2.8136158 0.18456355
1.8185232 1.3328683 -0.58502603
3.2851839 2.815486 0.27693319
1.8993765 1.4146013 -0.5705694
3.2841144 2.8144047 0.36933836
2.0307751 1.5474293 -0.56981575
3.285661 2.815968 0.463209
2.1656432 1.6837649 -0.56118131
3.2773492 2.8075659 0.55502236
2.3367 1.8566828 -0.55512428
3.2772567 2.8074725 0.64880639
2.5705688 2.093096 -0.55471569
3.2810314 2.8112881 0.7450521
2.0173707 1.5163122 -1.2721713
2.9611337 2.4594169 -0.57163697
2.1009011 1.5997843 -1.2716222
3.0385017 2.5367308 -0.50436336
2.1887999 1.6876216 -1.2694513
3.3102632 2.8083029 -0.4646028
2.2850385 1.7837931 -1.2675557
3.318589 2.8166227 -0.37175357
2.3924689 1.8911486 -1.2663804
3.3196993 2.8177323 -0.27874687
2.5070958 2.0056956 -1.2633241
3.3150373 2.8130734 -0.18558839
1.9215881 1.4205964 -0.83945125
3.317337 2.8153718 -0.092471816
0.5 0 0
3.3195112 2.8175442 0
0.5 0 0
3.3088512 2.8068917 0.092193283
0.5 0 0
3.3150373 2.8130734 0.18558839
1.8342805 1.3333497 -0.58860052
3.3112316 2.8092704 0.27790979
1.9047804 1.4038004 -0.56946677
3.3129544 2.8109922 0.37101042
2.0369244 1.5358523 -0.56880271
3.3158841 2.8139195 0.46553203
2.1780663 1.6768955 -0.56210357
3.308883 2.8069236 0.55808419
2.344595 1.8433082 -0.55429262
3.3003595 2.7984059 0.65042752
2.5825894 2.0811365 -0.55471569
3.3096883 2.8077283 0.74838483
2.0251181 1.5060725 -1.2711509
2.9686637 2.437835 -0.57001579
2.1103663 1.5902561 -1.2716222
3.0365996 2.5049226 -0.50102317
2.1962714 1.6750885 -1.2675732
3.3424268 2.8069305 -0.46715814
2.2943203 1.7719131 -1.2666581
3.3465886 2.8110406 -0.37323982
2.4036579 1.8798851 -1.2663804
3.3463078 2.8107631 -0.27972347
2.5215628 1.9963175 -1.264951
3.3473175 2.8117604 -0.18661322
1.9378718 1.4199157 -0.84407628
3.3496439 2.8140578 -0.092982449
2.7813442 2.2528551 -1.2519897
3.3461425 2.8106 0
2.9043748 2.3743491 -1.2299044
3.3354173 2.8000085 0.09251824
2.8687637 2.3391826 -1.124891
3.3430529 2.807549 0.18633372
1.8516786 1.3347989 -0.59277081
3.3420489 2.8065574 0.27930492
1.9117181 1.3940886 -0.56891555
3.3451719 2.8096416 0.37305406
2.0473883 1.5280646 -0.56930923
3.3438401 2.8083265 0.46739045
2.1866028 1.6655406 -0.56164241
3.3409917 2.8055134 0.56114596
2.3541093 1.8309551 -0.55387676
3.3309588 2.7956059 0.65366995
2.5963008 2.0701225 -0.55508602
3.3374879 2.8020537 0.75134724
2.0251508 1.4888519 -1.2640097
2.9854884 2.4263332 -0.57066429
2.1182513 1.5797366 -1.2706425
3.0580711 2.4971886 -0.50241494
2.207155 1.6665244 -1.2685122
3.3756039 2.8071642 -0.46994573
2.3032174 1.7603006 -1.2657604
3.3741319 2.8057272 -0.37472612
2.4131603 1.8676268 -1.2655247
3.3767262 2.8082597 -0.2811186
2.5330274 1.9846408 -1.264951
3.3777609 2.8092697 -0.18754488
1.9420644 1.407743 -0.84176373
3.3729587 2.8045816 -0.093214564
2.792949 2.2383764 -1.2512622
3.3780262 2.8095286 0
0.5 0 0
3.3658047 2.7975981 0.092982449
0.5 0 0
3.3720429 2.8036876 0.18717222
1.864809 1.3323263 -0.59515381
3.3710158 2.802685 0.28056055
1.925227 1.3913064 -0.57112062
3.3769817 2.8085091 0.37509766
2.0533948 1.5164237 -0.56829625
3.3741825 2.8057764 0.46971345
2.2059159 1.6653148 -0.56487024
3.3656065 2.7974045 0.56281608
2.367424 1.8229789 -0.55470848
3.3611357 2.7930403 0.65691239
2.6067829 2.0566411 -0.55471569
3.3676438 2.7993934 0.75505024
2.0413871 1.4869407 -1.2701308
2.9955816 2.4074302 -0.56969154
2.1288521 1.5713162 -1.2716222
3.0842483 2.4929647 -0.50464171
2.2195563 1.6588163 -1.2703902
3.4036489 2.8010833 -0.47180417
2.313632 1.7495689 -1.2657604
3.4050632 2.8024476 -0.37658396
2.4268117 1.8587507 -1.2672361
3.4019556 2.7994499 -0.28195569
2.5434537 1.9712728 -1.2641375
3.4087596 2.8060133 -0.18847655
1.9610184 1.4094108 -0.84793049
3.4025023 2.7999773 -0.093632355
2.8169179 2.2350774 -1.2570821
3.4032843 2.8007317 0
2.9928422 2.4047875 -1.2606862
3.3924289 2.7902596 0.093307398
0.5 0 0
3.4030082 2.8004651 0.18810388
1.8795615 1.3308313 -0.59813255
3.4019556 2.7994499 0.28195569
1.930691 1.3801547 -0.57001805
3.4064963 2.8038301 0.37676972
2.0665436 1.5112084 -0.56981575
3.4022195 2.7997043 0.47157189
2.2185695 1.6578646 -0.5657925
3.3964105 2.7941005 0.5655995
2.3782091 1.811865 -0.55470848
3.3890228 2.786974 0.65950632
2.6161213 2.0413735 -0.55397511
3.3997655 2.7973371 0.75912368
2.0511703 1.4792264 -1.2711509
3.063678 2.4447734 -0.58201271
2.1378746 1.5619093 -1.2716222
3.1100295 2.4889748 -0.50686848
2.2290812 1.6488856 -1.2703902
3.4096699 2.774718 -0.47017807
2.3249712 1.7403281 -1.2666581
3.4355659 2.799413 -0.37844178
2.4387929 1.8488708 -1.2680918
3.4324689 2.7964594 -0.2833508
2.5746069 1.9783856 -1.2763397
3.4364383 2.8002448 -0.1892219
1.9771247 1.4086149 -0.85255563
3.4330497 2.7970133 -0.094096571
2.8243592 2.2165542 -1.2541722
3.429498 2.7936263 0
2.99577 2.3800149 -1.2552139
3.4214737 2.7859745 0.093725197
3.1176519 2.496244 -1.2222066
3.4306555 2.7947302 0.18884924
1.8968749 1.3320872 -0.60230279
3.4353564 2.7992132 0.2836298
1.9400073 1.373219 -0.5705694
3.4341249 2.7980387 0.37825596
2.0696201 1.4968204 -0.56778973
3.4326713 2.7966526 0.47389489
2.2182302 1.6385379 -0.56256467
3.4282205 2.7924082 0.56866133
2.3886127 1.801018 -0.55470848
3.4250212 2.7893574 0.66404569
2.6278431 2.0291526 -0.55397511
3.4314735 2.7955103 0.763197
2.0549126 1.465277 -1.2670703
3.115483 2.464709 -0.59044296
2.1496518 1.5545548 -1.2735815
3.1334007 2.4815936 -0.50853854
2.2491162 1.6482854 -1.2779016
3.405843 2.7383308 -0.4669258
0.5 0 0
3.4680669 2.7969677 -0.38048539
0.5 0 0
3.4693384 2.7981658 -0.28530398
0.5 0 0
3.4704499 2.7992134 -0.19033989
2.7093823 2.0820189 -1.2680416
3.4641461 2.793273 -0.094560787
2.834759 2.2001677 -1.2527173
3.4664006 2.7953973 0
3.012584 2.3677418 -1.256582
3.4481394 2.7781889 0.094050147
3.1420708 2.489764 -1.2266883
3.4631801 2.7923625 0.18987407
1.9047545 1.3237751 -0.60230279
3.4664345 2.7954292 0.28502494
1.9481302 1.3646502 -0.5705694
3.472415 2.801065 0.38104275
2.0826988 1.4914613 -0.56930923
3.4680083 2.7969124 0.47691482
2.2307553 1.6309829 -0.56348687
3.4605937 2.7899251 0.57172316
2.4021137 1.7924631 -0.55554008
3.4515748 2.7814262 0.66631538
2.6412764 2.017839 -0.55434543
3.4580226 2.7875023 0.76578909
0.5 0 0
3.153172 2.4706643 -0.59563082
0.5 0 0
3.1625748 2.4794202 -0.51132202
2.2459435 1.6258425 -1.2685122
3.3944206 2.6953177 -0.46251211
2.3402648 1.7136755 -1.2630672
3.4977286 2.7915192 -0.38215747
2.4433999 1.8097163 -1.2569681
3.5019522 2.7954521 -0.28683862
2.56986 1.9274772 -1.2592567
3.5016298 2.7951519 -0.19127157
2.7122445 2.0600674 -1.2626457
3.4967659 2.7906227 -0.09507142
2.8559544 2.1938918 -1.2570821
3.499037 2.7927375 0
3.0252151 2.3515091 -1.255898
3.4821332 2.7769966 0.094607204
3.1748252 2.490828 -1.2350113
3.4943192 2.7883444 0.19080573
1.9307493 1.3323301 -0.61004752
3.4931917 2.7872944 0.28600156
1.9576097 1.3573428 -0.57112062
3.499186 2.7928762 0.38234323
2.0915215 1.482043 -0.56930923
3.4961834 2.7900803 0.47877321
2.2446761 1.6246624 -0.56487024
3.4901426 2.7844551 0.57422829
2.408422 1.7771444 -0.55429262
3.4839156 2.7786565 0.669882
2.6560898 2.0077753 -0.55508602
3.4917722 2.7859726 0.7702328
2.0716882 1.4472684 -1.2670703
3.1901581 2.4771967 -0.60081869
2.1559055 1.5248188 -1.2647643
3.1880364 2.4752431 -0.51354879
2.2485013 1.6100845 -1.2638175
3.3305194 2.6064467 -0.44996783
2.3458629 1.6997386 -1.2603741
3.5264568 2.7868729 -0.38382947
0.5 0 0
3.5292597 2.789454 -0.28795472
2.5873132 1.9220749 -1.2633241
3.5304208 2.7905231 -0.19211006
2.7250733 2.0489295 -1.2634164
3.5284841 2.7887399 -0.095582061
2.8640594 2.176913 -1.2548996
3.5278294 2.7881367 0
3.0396917 2.3386416 -1.256582
3.5211303 2.7819681 0.095349953
3.2040272 2.4899678 -1.2420539
3.5274818 2.7878168 0.19192374
0.5 0 0
3.5263245 2.786751 0.28767568
1.9665822 1.3504829 -0.5716719
3.5308511 2.7909195 0.38438684
2.0969276 1.4705096 -0.56829625
3.5277939 2.7881041 0.48132852
2.2537229 1.6148926 -0.56487024
3.5216737 2.7824683 0.57729006
2.4197569 1.767783 -0.55470848
3.5124545 2.7739792 0.67280018
2.6629324 1.9917078 -0.55397511
3.5217438 2.7825329 0.77393585
2.077704 1.4356006 -1.2650298
3.2267063 2.4811125 -0.60568225
2.1778214 1.5267005 -1.2745613
3.2187912 2.4739103 -0.51661056
2.2606373 1.6020572 -1.2656955
3.3283057 2.573561 -0.44718021
2.3625264 1.694769 -1.2648627
3.5606155 2.7849467 -0.3860589
2.4774878 1.799376 -1.2655247
3.5590405 2.7835135 -0.28921035
2.6013851 1.9121139 -1.264951
3.5617037 2.7859368 -0.19304173
2.7371929 2.0356894 -1.2634164
3.5568109 2.7814846 -0.095953435
2.878314 2.1640999 -1.2556272
3.5546761 2.7795422 0
3.0493548 2.3197351 -1.2545298
3.546459 2.7720652 0.095628485
3.2285655 2.4828043 -1.2465355
3.5587485 2.7832477 0.19285542
3.2296104 2.4837551 -1.1515838
3.5590405 2.7835135 0.28921035
1.9731483 1.3404623 -0.57112062
3.5591428 2.7836065 0.38587314
2.1084876 1.4636116 -0.56930923
3.5575089 2.7821198 0.48341924
2.2647145 1.6057671 -0.5653314
3.551316 2.7764847 0.57979518
2.4215319 1.7484601 -0.55221349
3.5449195 2.7706642 0.67636687
2.6776206 1.981483 -0.55471569
3.554193 2.7791026 0.77800912
2.0900326 1.4296644 -1.2680904
3.2589912 2.4807239 -0.60957319
2.1816645 1.5120547 -1.2706425
3.2452049 2.468328 -0.51883733
2.2779915 1.5986662 -1.2713292
3.3523901 2.5647025 -0.44857404
2.373879 1.6848826 -1.2657604
3.5904143 2.7787199 -0.38773099
2.4908185 1.7900277 -1.2672361
3.5888555 2.7773185 -0.29046595
2.6099768 1.8971679 -1.2633241
3.5915513 2.7797425 -0.19388025
2.7478604 2.0211449 -1.2626457
3.5925906 2.7806768 -0.096556917
2.8897278 2.1487038 -1.2548996
3.5934238 2.7814262 0
3.0630746 2.3045671 -1.2545298
3.5777223 2.7673082 0.096092701
3.2488856 2.4716375 -1.2490965
3.5870943 2.7757349 0.19360074
3.2670157 2.4879391 -1.1611159
3.5903394 2.7786527 0.29060549
1.975358 1.3265557 -0.56891555
3.5918949 2.7800515 0.38791674
2.1171441 1.4540415 -0.56930923
3.5916893 2.7798665 0.48620686
2.2640815 1.5861592 -0.56210357
3.5824645 2.7715721 0.58257866
2.4391465 1.7435673 -0.55429262
3.5774493 2.7670627 0.67993349
2.6878786 1.9672127 -0.55434543
3.5867064 2.7753861 0.78208244
2.0982411 1.4204817 -1.2680904
3.2865107 2.4765897 -0.61249137
2.1877398 1.5000261 -1.2686831
3.2801023 2.4708941 -0.52273422
2.2818909 1.5837055 -1.2675732
3.5363808 2.6986687 -0.47505638
2.3848886 1.6752478 -1.2666581
3.6212528 2.7741013 -0.3895888
2.5010962 1.7785305 -1.2672361
3.627171 2.7793612 -0.29255864
2.6195042 1.8837689 -1.2625105
3.6239376 2.7764874 -0.19490507
2.7608445 2.0093892 -1.2634164
3.6235011 2.7760994 -0.097021133
2.902065 2.1349027 -1.2548996
3.6183634 2.771533 0
3.0777113 2.2910135 -1.2552139
3.6085563 2.7628169 0.096556917
3.2701583 2.4620559 -1.2522976
3.6209514 2.7738333 0.19471875
3.3027062 2.490984 -1.1700521
3.6256797 2.7780359 0.29241917
1.9829746 1.3180354 -0.56891555
3.6227412 2.775424 0.38977459
2.1226006 1.4421318 -0.56829625
3.6239829 2.7765276 0.48876217
2.2804618 1.5824356 -0.56440914
3.6161423 2.7695589 0.58591878
2.4462333 1.7297693 -0.55346096
3.608088 2.7624006 0.68317592
2.6991737 1.9545774 -0.55434543
3.6202705 2.7732282 0.78652614
2.1102726 1.4146596 -1.2711509
3.2888665 2.4500802 -0.60989743
2.1976607 1.491432 -1.2696627
3.3091655 2.4679134 -0.5255177
2.2909822 1.5734169 -1.2675732
3.6623073 2.778156 -0.49224672
2.3931632 1.6631852 -1.2657604
3.6566265 2.7731652 -0.39200401
2.509948 1.7657832 -1.2663804
3.6551168 2.7718391 -0.29367474
2.6330633 1.8739426 -1.2641375
3.657887 2.7742729 -0.19602308
2.7696068 1.9938992 -1.2618748
3.6604671 2.7765393 -0.097671032
2.9129212 2.1198039 -1.2541722
3.6538064 2.7706878 0
3.0894513 2.2748895 -1.2545298
3.6424417 2.7607036 0.097113967
3.2914093 2.4523139 -1.2554988
3.6563864 2.7729545 0.19592991
3.3270462 2.4836218 -1.1742224
3.6536181 2.7705224 0.29353523
1.9963182 1.3145483 -0.57112062
3.6611145 2.777108 0.39256138
2.1337862 1.4353168 -0.56930923
3.6563377 2.7729115 0.49131745
2.291008 1.5734396 -0.56487024
3.6498961 2.7672524 0.58925897
2.4576325 1.7198231 -0.55387676
3.6432204 2.7613878 0.68739104
2.7059643 1.9379879 -0.55323452
3.6553855 2.7720752 0.79134011
2.1173391 1.4039521 -1.2701308
0.5 0 0
2.205164 1.4801893 -1.2686831
3.3342295 2.4602892 -0.52746612
2.2989533 1.5616045 -1.2666343
3.6937375 2.7723649 -0.49456972
2.401649 1.6507508 -1.2648627
3.6895676 2.7687452 -0.39404762
2.5217552 1.7550107 -1.2672361
3.6895888 2.7687635 -0.29534891
2.645525 1.8624505 -1.264951
3.6878715 2.7672729 -0.19686158
2.7813981 1.980397 -1.2618748
3.6904762 2.7695339 -0.098088831
2.9240499 2.1042278 -1.2534447
3.6928463 2.7715912 0
3.124193 2.2779644 -1.2647905
3.6799066 2.7603588 0.097763881
3.3030496 2.433223 -1.2542183
3.6893799 2.7685823 0.19695474
3.3475006 2.4718096 -1.1766053
3.6895888 2.7687635 0.29534891
2.0084476 1.3094273 -0.57277447
3.6910717 2.7700508 0.39423344
2.1451964 1.4281337 -0.57032228
3.6922374 2.7710626 0.49433738
2.2944343 1.5576817 -0.56302577
3.6797214 2.7601979 0.59176409
2.467803 1.7081767 -0.55387676
3.6774347 2.758213 0.69128197
2.7174251 1.9248643 -0.55323452
3.6881049 2.7674754 0.79541343
2.1243372 1.3932092 -1.2691107
2.9851911 2.1315715 -0.53791589
2.2178888 1.4734491 -1.2716222
3.3848603 2.4743714 -0.53414643
2.3108702 1.5532001 -1.2685122
3.7252126 2.7662947 -0.49689272
2.4127688 1.6405996 -1.2657604
3.7225704 2.7640285 -0.39609125
2.5307631 1.7418044 -1.2663804
3.7256515 2.7666712 -0.29716259
2.6537666 1.8473055 -1.2633241
3.7239523 2.7652137 -0.19807276
2.7917101 1.9656211 -1.2611039
3.7250686 2.7661712 -0.098645881
2.9379096 2.0910177 -1.2541722
3.7244196 2.7656145 0
3.1134145 2.24155 -1.2531618
3.7174799 2.7596624 0.09841378
3.298744 2.4005089 -1.2458953
3.7209191 2.7626123 0.19788641
0.5 0 0
3.7226224 2.7640731 0.29688355
2.0278664 1.3104651 -0.57718468
3.7271044 2.7679174 0.39664859
2.152174 1.4170851 -0.56981575
3.7252126 2.7662947 0.49689272
2.311033 1.5533398 -0.5653314
3.7170928 2.7593303 0.59566092
2.477906 1.6964684 -0.55387676
3.7087278 2.7521558 0.69452435
2.7317932 1.9142298 -0.55397511
3.7238667 2.7651405 0.8002274
2.1362705 1.3871684 -1.2721713
2.9838777 2.1057377 -0.53499776
2.2250161 1.4624037 -1.2706425
3.7601235 2.7638097 -0.60067111
2.3197851 1.5427454 -1.2685122
3.7607887 2.7643735 -0.49991265
2.4235487 1.630712 -1.2666581
3.7566626 2.7608757 -0.39832065
2.5421395 1.731249 -1.2672361
3.759794 2.7635303 -0.29883674
0.5 0 0
3.7581105 2.7621033 -0.19919075
0.5 0 0
3.7577224 2.7617743 -0.099156529
0.5 0 0
3.7586005 2.7625186 0
0.5 0 0
3.7516222 2.7566025 0.098970845
0.5 0 0
3.7520149 2.7569356 0.19881809
3.5640743 2.5976064 -1.253457
3.7552285 2.75966 0.29841819
2.0427206 1.3078603 -0.57994103
3.7521055 2.7570124 0.39776328
2.1588323 1.4062955 -0.56930923
3.7592733 2.7630889 0.49968031
2.3095579 1.5340748 -0.56210357
3.7525699 2.7574062 0.5992794
2.4951046 1.6913743 -0.55595589
3.7440948 2.7502213 0.69873953
2.7427804 1.9013447 -0.55397511
3.7532313 2.7579668 0.80356014
2.1431546 1.3763294 -1.2711509
3.0175107 2.1087022 -0.53953713
2.233664 1.4521413 -1.2706425
3.7931685 2.758404 -0.60373294
2.3275545 1.5307852 -1.2675732
3.7954097 2.7602813 -0.50270021
2.4331918 1.6192687 -1.2666581
3.7913079 2.7568457 -0.40055007
2.5537634 1.7202609 -1.2680918
3.7929602 2.7582295 -0.30037138
2.6654158 1.8137826 -1.2576298
3.7912915 2.7568319 -0.20021559
2.8173676 1.9410595 -1.2626457
3.790915 2.7565165 -0.099667162
0.5 0 0
3.7948685 2.7598279 0
0.5 0 0
3.7832513 2.7500973 0.099435061
0.5 0 0
3.7882283 2.754266 0.20002925
0.5 0 0
3.789901 2.7556672 0.30009234
2.060771 1.3073238 -0.58379996
3.7928345 2.7581244 0.40073583
2.1686316 1.3976691 -0.56981575
3.7908411 2.7564547 0.50200331
2.3201213 1.524559 -0.56256467
3.7855768 2.7520452 0.60234123
2.4991076 1.6744806 -0.55429262
3.7770002 2.7448611 0.70230615
2.7510107 1.885478 -0.55323452
3.7891276 2.7550192 0.80837411
2.1484046 1.3646486 -1.2691107
0.5 0 0
2.2379699 1.4387962 -1.2677034
3.8288338 2.7558093 -0.60735148
2.3363409 1.5202336 -1.2675732
3.8296151 2.7564561 -0.50548786
2.4411097 1.6069676 -1.2657604
3.8270731 2.7543516 -0.40296525
2.5608523 1.7060977 -1.2663804
3.8287706 2.7557571 -0.30218506
2.6856782 1.8094361 -1.2633241
3.8271213 2.7543914 -0.20142676
2.8256657 1.9253262 -1.2611039
3.8267591 2.7540915 -0.10027064
2.9697261 2.0445881 -1.2519897
3.829196 2.756109 0
3.1420031 2.1872094 -1.2483735
3.817518 2.7464414 0.099992111
3.3475096 2.3573401 -1.2490965
3.8225045 2.7505693 0.20114726
3.6118884 2.5762088 -1.2606061
3.8226235 2.750668 0.30162701
2.080122 1.3081204 -0.58821017
3.8301404 2.7568908 0.40333679
2.1751637 1.3868015 -0.56930923
3.8250246 2.7526557 0.50479096
2.327373 1.5128095 -0.56210357
3.8166292 2.7457054 0.60512465
2.5072119 1.6616911 -0.55387676
3.8125179 2.7423019 0.70652127
2.7678888 1.8774949 -0.55471569
3.821594 2.7498157 0.81244743
2.1575685 1.3562208 -1.2701308
0.5 0 0
2.2475774 1.4298662 -1.2686831
3.8630455 2.7516406 -0.61069161
2.3478003 1.5118682 -1.2694513
3.8608105 2.7498119 -0.50781089
2.4489498 1.5946288 -1.2648627
3.8613763 2.7502749 -0.40519464
2.5692456 1.6930548 -1.2655247
3.8600292 2.7491727 -0.30358016
2.6932356 1.7945033 -1.2616972
3.8599389 2.7490988 -0.20245159
2.8410013 1.915405 -1.2634164
3.8611367 2.7500789 -0.1008277
2.9814613 2.0303292 -1.2519897
3.8666861 2.7546194 0
3.1574662 2.1743362 -1.2497417
3.8549466 2.7450142 0.10064202
3.3639729 2.3432999 -1.2503769
3.8583925 2.7478335 0.20235842
3.620764 2.553406 -1.2582229
3.8615732 2.7504361 0.30371967
2.0935822 1.3038673 -0.5904153
3.8675411 2.7553189 0.40593782
2.1846209 1.378355 -0.56981575
3.8608105 2.7498119 0.50781089
2.3450933 1.5096534 -0.56487024
3.8507826 2.7416072 0.60846484
2.5152354 1.6488638 -0.55346096
3.8496416 2.7406735 0.71106064
2.7786648 1.8644015 -0.55471569
3.8571517 2.7468183 0.8172614
2.1669245 1.3474429 -1.2711509
0.5 0 0
2.2600992 1.4227597 -1.2716222
3.894716 2.744087 -0.61347502
2.3553653 1.4997672 -1.2685122
3.8986962 2.7473042 -0.5110631
2.4583776 1.5830363 -1.2648627
3.897769 2.7465549 -0.40760982
2.5778494 1.6796103 -1.2646691
3.8980052 2.7467458 -0.30553335
2.7024243 1.7803091 -1.2608837
3.8948364 2.7441843 -0.20356961
2.8480201 1.898 -1.2611039
3.8945 2.7439125 -0.10133833
2.9949138 2.0167403 -1.2527173
3.9016364 2.749681 0
3.1717827 2.1597106 -1.2504256
3.8867257 2.737628 0.10110623
3.3675122 2.3179266 -1.2458953
3.8932827 2.7429283 0.20347641
3.6358602 2.5348434 -1.2582229
3.894902 2.7442374 0.30525434
2.1072712 1.2992228 -0.59262037
3.8931236 2.7427998 0.40705252
2.1927698 1.3683347 -0.56981575
3.8956068 2.744807 0.51059854
2.3540187 1.4986786 -0.56487024
3.8916359 2.7415972 0.61291838
2.5280266 1.6393365 -0.55429262
3.8827281 2.7343965 0.71462727
2.7851024 1.8471411 -0.55360484
3.8917336 2.7416763 0.82170504
2.1748912 1.3375274 -1.2711509
0.5 0 0
2.2685113 1.41229 -1.2716222
3.9341547 2.7424324 -0.61765027
2.3642325 1.4887307 -1.2685122
3.9351187 2.743202 -0.51408303
2.466341 1.570272 -1.263965
3.9326811 2.7412555 -0.40983924
2.58778 1.6672504 -1.2646691
3.9329534 2.741473 -0.30720752
2.7172334 1.7706286 -1.2633241
3.9329169 2.7414439 -0.20487393
2.8606839 1.8851848 -1.2618748
3.9325969 2.7411883 -0.10198823
3.003926 1.9995744 -1.2512622
3.9288335 2.738183 0
3.1830835 2.1426451 -1.2497417
3.9247851 2.7349501 0.10175613
3.3841779 2.3032343 -1.2471757
3.9313562 2.7401974 0.20478077
3.6463721 2.5126162 -1.2564359
3.9298356 2.7389832 0.30692849
2.1269712 1.2992597 -0.59703058
3.9280126 2.7375274 0.40928191
2.20086 1.3582654 -0.56981575
3.9335663 2.7419624 0.51385075
2.3567967 1.4827925 -0.56302577
3.9248691 2.7350171 0.61598021
2.5331333 1.6236106 -0.55304515
3.9235694 2.733979 0.71981514
2.7975593 1.8347747 -0.55397511
3.929445 2.7386713 0.82688928
2.1866183 1.3310554 -1.2742115
0.5 0 0
2.2779849 1.4031606 -1.2726018
3.9732141 2.7410116 -0.62182552
2.3700037 1.4757805 -1.2666343
3.9726923 2.7405999 -0.51733524
2.4781585 1.5611347 -1.2657604
3.9687343 2.7374761 -0.41225445
2.5959294 1.6540778 -1.2638135
3.9706128 2.7389586 -0.30916068
2.7259605 1.7566967 -1.2625105
3.9706059 2.7389531 -0.20617826
2.8744001 1.8738431 -1.2634164
3.9671633 2.7362363 -0.1025453
3.0154014 1.9851193 -1.2512622
3.9712377 2.7394519 0
3.1924291 2.1248271 -1.2483735
3.957746 2.7288043 0.10226677
3.3959086 2.2854102 -1.2465355
3.9659009 2.73524 0.20589876
3.6458046 2.4826245 -1.2504783
3.9659142 2.7352507 0.30874214
2.1525376 1.3041593 -0.6036458
3.9640446 2.7337751 0.41169709
2.2056174 1.3460492 -0.56880271
3.9680145 2.7369082 0.51663834
2.3653064 1.4720733 -0.56302577
3.9592216 2.7299688 0.61932033
2.5501294 1.6179332 -0.55512428
3.9532025 2.7252188 0.72273332
2.8096316 1.8227288 -0.55434543
3.9652188 2.7347019 0.83170325
2.1890607 1.3167925 -1.2701308
0.5 0 0
2.2835302 1.3904409 -1.2706425
4.008162 2.7349648 -0.62516558
2.3801212 1.4657433 -1.2675732
4.0061278 2.7333791 -0.51989055
2.4859781 1.5482695 -1.2648627
4.0021935 2.7303116 -0.41429806
2.6071336 1.6427225 -1.2646691
4.0072603 2.7342618 -0.31097436
2.737787 1.7445798 -1.2633241
4.0009789 2.7293649 -0.20701677
2.885478 1.85972 -1.2634164
4.0101471 2.7365122 -0.10333446
3.030076 1.9724486 -1.2527173
4.0016289 2.7298715 0
3.2079554 2.1111236 -1.2497417
3.9912238 2.7217598 0.1027774
3.4109142 2.2693501 -1.2471757
3.9931004 2.7232227 0.20655093
3.6499414 2.4556959 -1.246308
6.1377358 4.3951817 0.49987489
2.774312 1.7730547 -0.82691216
0.5 0 0
2.2196789 1.3406625 -0.5708288
6.1289172 4.3883066 0.83465898
2.3709393 1.4585853 -0.56210357
6.1183701 4.380084 1.0012114
2.5566087 1.6033332 -0.55429262
6.1094241 4.3731098 1.1685648
2.8204076 1.8089908 -0.55434543
6.1157889 4.3780718 1.3416121
2.1982074 1.3077965 -1.2711509
0.5 0 0
2.291749 1.3798333 -1.2706425
6.1725059 4.3684206 -1.0062217
2.3915834 1.4567163 -1.2694513
6.1658735 4.3633127 -0.83628505
2.4922981 1.534277 -1.2630672
6.152998 4.3533969 -0.66566366
2.6197083 1.6323962 -1.2663804
6.154232 4.3543477 -0.4990378
2.7480993 1.7312706 -1.2633241
6.150806 4.3517089 -0.33260569
2.896471 1.8455323 -1.2634164
6.1522541 4.3528247 -0.16563225
3.0402594 1.9562643 -1.2519897
6.1474395 4.3491163 0
3.2219234 2.0961645 -1.2504256
6.1237397 4.3308654 0.16479665
3.4273307 2.2543495 -1.2484562
6.1444745 4.3468332 0.33223304
3.6614323 2.4346321 -1.2451166
6.1368442 4.3409572 0.49750319
2.7908852 1.7642202 -0.82911724
0.5 0 0
2.2245376 1.3280736 -0.56981575
6.1359706 4.3402843 0.83187133
2.3903544 1.4557698 -0.5653314
6.1113086 4.3212919 0.9953661
2.5676363 1.5922953 -0.55470848
6.102438 4.3144608 1.1617557
2.8311005 1.7951902 -0.55434543
6.1105242 4.3206882 1.3342061
2.2086763 1.2997789 -1.2731913
0.5 0 0
2.2999058 1.3691765 -1.2706425
6.2125158 4.3454733 -1.0087267
2.4001946 1.4454657 -1.2694513
6.2090583 4.3428431 -0.83884037
2.5042126 1.5245913 -1.2648627
6.2040911 4.3390646 -0.6686362
