# .PCD v0.7 - Point Cloud Data file format
VERSION 0.7
FIELDS x y z
SIZE 4 4 4
TYPE F F F
COUNT 1 1 1
WIDTH 1735
HEIGHT 1
VIEWPOINT 0 0 0 1 0 0 0
POINTS 1735
DATA ascii
-0 0 0
-10.886676 1.8804557 -1.8151014
-0 0 0
-9.8772297 1.7060941 -1.4087102
-0 0 0
-0 0 0
-0 0 0
-0 0 0
-0 0 0
-10.889757 1.880988 -0.77276218
-0 0 0
-10.888749 1.8808138 -0.51530588
-0 0 0
-10.899615 1.8826908 -0.25680426
-0 0 0
-10.898612 1.8825175 0
-0 0 0
-10.885823 1.8803085 0.25647929
-0.485448 0.083851449 -0.16646084
-10.898593 1.8825142 0.51577175
-4.302649 0.74319667 -1.3624792
-10.905486 1.8837049 0.77387834
-4.6793404 0.80826259 -1.3616486
-10.90447 1.8835294 1.0324011
-5.1382017 0.88752168 -1.3650253
-9.9322367 1.7155955 1.1786973
-5.6898718 0.98281169 -1.3681388
-8.9775257 1.5506883 1.2803926
-6.3615713 1.0988344 -1.3722173
-8.9788818 1.5509225 1.497021
-7.2162938 1.2464706 -1.3797535
-8.4112635 1.4528778 1.6082313
-0 0 0
-10.861727 1.9425915 -1.8128316
-0 0 0
-9.8883781 1.7685106 -1.411772
-0 0 0
-10.876134 1.9451683 -1.2920605
-0 0 0
-0 0 0
-0 0 0
-10.878404 1.9455743 -0.77276218
-0 0 0
-10.879363 1.9457458 -0.51539904
-0 0 0
-10.886284 1.9469836 -0.25675783
-0 0 0
-10.887249 1.9471562 0
-0 0 0
-10.880381 1.9459276 0.25661856
-0.47934636 0.085729852 -0.16454013
-10.889196 1.9475044 0.51586491
-4.2868867 0.76669854 -1.3589047
-10.890187 1.9476817 0.77359927
-4.6763544 0.83635384 -1.3621999
-10.889181 1.9475017 1.0320295
-5.1347489 0.91833651 -1.3655318
-9.9199266 1.774153 1.1784651
-5.6743608 1.0148447 -1.3658332
-8.972065 1.6046305 1.2809494
-6.3645678 1.1382864 -1.3742963
-8.9695215 1.6041754 1.497021
-7.2300529 1.2930762 -1.3838269
-8.4082975 1.5038022 1.6093421
-0 0 0
-10.844537 2.0040438 -1.811859
-0 0 0
-9.8527088 1.8207564 -1.4081535
-0 0 0
-10.866703 2.0081401 -1.2922927
-0 0 0
-10.867992 2.0083785 -1.0311005
-0 0 0
-10.872904 2.0092859 -0.77318078
-0 0 0
-10.871905 2.0091014 -0.51558542
-0 0 0
-10.872924 2.0092897 -0.25671142
-0 0 0
-10.88372 2.0112848 0
-0 0 0
-10.878822 2.0103798 0.25685069
-0.47325501 0.087456368 -0.16261943
-10.885657 2.0116427 0.51623762
-4.284277 0.79172391 -1.3595004
-10.882713 2.0110989 0.77387834
-4.669569 0.86292493 -1.3616486
-10.883657 2.0112734 1.0325868
-5.1388874 0.9496538 -1.3680644
-9.9505634 1.8388399 1.1833434
-5.6722488 1.0482178 -1.3667555
-8.9646215 1.6566402 1.2812277
-6.3521342 1.1738589 -1.3730489
-8.964015 1.656528 1.4976695
-7.2302155 1.3361262 -1.385308
-8.4033623 1.5529207 1.6100826
-0 0 0
-10.834752 2.0668414 -1.8121833
-0 0 0
-0 0 0
-0 0 0
-10.862762 2.0721846 -1.293222
-0 0 0
-10.856245 2.0709414 -1.0311005
-0 0 0
-10.865069 2.0726247 -0.77345979
-0 0 0
-10.86604 2.0728099 -0.51586491
-0 0 0
-10.869026 2.0733795 -0.25689709
-0 0 0
-10.87392 2.0743132 0
-0 0 0
-10.863134 2.0722556 0.25675783
-0.48204944 0.09195593 -0.16582058
-10.875853 2.0746818 0.51633078
-4.2758956 0.81567144 -1.358309
-10.880749 2.0756156 0.77457583
-4.6607447 0.88908541 -1.3605461
-10.877762 2.0750458 1.0331442
-5.1219296 0.97706121 -1.3650253
-9.9456606 1.897238 1.1840403
-5.677587 1.0830586 -1.3695221
-8.9568758 1.7086171 1.2815059
-6.3318167 1.2078596 -1.3701382
-8.9601412 1.7092398 1.4986422
-7.1992326 1.3733283 -1.3808644
-8.3942785 1.6012957 1.6100826
-0 0 0
-10.839352 2.1364188 -1.8151014
-0 0 0
-0 0 0
-0 0 0
-10.855748 2.1396506 -1.2939188
-0 0 0
-10.849254 2.1383705 -1.0316579
-0 0 0
-10.852207 2.1389525 -0.77345979
-0 0 0
-10.855137 2.1395299 -0.51595807
-0 0 0
-10.860083 2.1405048 -0.25698993
-0 0 0
-10.868896 2.142242 0
-0 0 0
-10.858121 2.1401184 0.25694352
-3.9466386 0.77787614 -1.3592167
-10.870818 2.1426208 0.51670343
-4.267087 0.84103602 -1.3571174
-10.871782 2.1428108 0.77485496
-4.6533403 0.91716594 -1.3599948
-10.86293 2.1410661 1.0329584
-5.1272554 1.0105739 -1.3680644
-9.9358358 1.9583373 1.1842725
-5.6613188 1.1158369 -1.3672166
-8.9521027 1.7644451 1.2823411
-6.3243208 1.2465134 -1.3701382
-8.9514694 1.7643203 1.4989663
-7.219635 1.4229784 -1.3864189
-8.3881979 1.6533003 1.6108234
-0 0 0
-10.830735 2.1996005 -1.81575
-0 0 0
-9.8093796 1.9921746 -1.4067619
-0 0 0
-10.847137 2.2029316 -1.2943834
-0 0 0
-10.844563 2.2024086 -1.0324011
-0 0 0
-10.847528 2.2030108 -0.77401787
-0 0 0
-10.848507 2.2032096 -0.51623762
-0 0 0
-10.85737 2.2050097 -0.25722206
-0 0 0
-10.860297 2.2056041 0
-0 0 0
-10.847573 2.2030201 0.25698993
-3.936522 0.79946333 -1.357296
-10.860255 2.2055955 0.51679659
-4.265914 0.86635911 -1.358309
-10.861215 2.2057903 0.77499443
-4.6479807 0.9439525 -1.3599948
-10.860175 2.2055793 1.0338873
-5.1004925 1.0358526 -1.3624928
-9.9302311 2.0167181 1.1849695
-5.6280975 1.1430032 -1.3607609
-8.9437323 1.8163713 1.2826194
-0 0 0
-8.9469614 1.8170271 1.4999392
-7.1882052 1.4598436 -1.3819753
-8.3804617 1.7019775 1.6111937
-0 0 0
-10.807835 2.2618096 -1.8141288
-0 0 0
-9.799325 2.0507538 -1.4070402
-0 0 0
-10.837765 2.2680733 -1.2948481
-0 0 0
-10.839101 2.268353 -1.0331442
-0 0 0
-10.840123 2.2685671 -0.77443635
-0 0 0
-10.839153 2.268364 -0.51642394
-0 0 0
-10.848009 2.2702172 -0.25731489
-0 0 0
-10.850933 2.2708292 0
-0 0 0
-10.84018 2.268579 0.25712919
-3.911309 0.81853926 -1.3502535
-10.856752 2.272047 0.5172624
-4.2644353 0.89243972 -1.3595004
-10.85184 2.271019 0.77527344
-4.6460609 0.97230446 -1.3610973
-10.858591 2.2724319 1.035002
-5.0980439 1.0668932 -1.3635058
-9.9297562 2.0780499 1.1863633
-5.6193109 1.1759814 -1.3602997
-8.9366741 1.8702224 1.2831761
-6.2997384 1.3183777 -1.368059
-8.937953 1.8704903 1.5002635
-7.1813407 1.5028752 -1.3823457
-8.372138 1.7520794 1.6115639
-0 0 0
-10.811992 2.32776 -1.8170469
-0 0 0
-9.7834778 2.1063268 -1.4064835
-0 0 0
-10.830347 2.3317118 -1.295545
-0 0 0
-10.829749 2.331583 -1.0335157
-0 0 0
-10.832728 2.3322246 -0.77485496
-0 0 0
-10.833722 2.3324385 -0.51679659
-0 0 0
-10.838663 2.3335023 -0.25740772
-0 0 0
-10.84354 2.3345523 0
-0 0 0
-10.834754 2.3326607 0.25731489
-3.9065297 0.84105349 -1.3502535
-10.843486 2.3345406 0.5172624
-4.2573581 0.91658485 -1.3589047
-10.848333 2.3355842 0.775971
-4.6366248 0.9982388 -1.3599948
-10.843376 2.3345168 1.0348163
-5.0955973 1.0970531 -1.3645189
-9.9176226 2.1352074 1.1863633
-5.6181521 1.2095561 -1.3616831
-8.9315624 1.9229145 1.2840111
-6.2996902 1.3562874 -1.3697224
-8.9347486 1.9236003 1.5015603
-7.1764083 1.5450397 -1.3830862
-8.361908 1.800271 1.6115639
-0 0 0
-10.784917 2.387007 -1.8147771
-0 0 0
-10.825071 2.3958945 -1.5581821
-0 0 0
-10.820618 2.3949087 -1.2960097
-0 0 0
-0 0 0
-0 0 0
-10.821064 2.3950076 -0.77499443
-0 0 0
-10.824009 2.3956592 -0.51698291
-0 0 0
-10.8309 2.3971846 -0.25754699
-0 0 0
-10.829914 2.3969662 0
-0 0 0
-10.826997 2.3963206 0.25745416
-3.9053204 0.86435789 -1.3515339
-10.839614 2.3991132 0.51772827
-4.2501445 0.94067717 -1.358309
-10.834701 2.3980258 0.775971
-4.6326761 1.0253422 -1.3605461
-10.839472 2.3990817 1.0357451
-5.0873051 1.1259645 -1.3640122
-9.9090395 2.1931508 1.1868279
-5.6243935 1.2448373 -1.364911
-8.9300079 1.9764632 1.2854028
-6.2860441 1.3912793 -1.3684748
-8.9273758 1.9758809 1.5022088
-7.161633 1.5850719 -1.3819753
-8.3552389 1.8492507 1.6123044
-0 0 0
-10.81867 2.4619126 -1.8228832
-0 0 0
-6.7474914 1.5354692 -0.97254169
-0 0 0
-10.804277 2.4586375 -1.2957772
-0 0 0
-0 0 0
-0 0 0
-10.814444 2.4609509 -0.77555251
-0 0 0
-10.815445 2.4611788 -0.5172624
-0 0 0
-10.820383 2.4623024 -0.25763983
-0 0 0
-10.823299 2.462966 0
-0 0 0
-10.820383 2.4623024 0.25763983
-3.9038174 0.88835847 -1.3528144
-10.829082 2.464282 0.51791459
-4.2444873 0.96588188 -1.358309
-10.831952 2.4649351 0.77680808
-4.6246347 1.0523888 -1.3599948
-10.832812 2.4651308 1.0364883
-5.0767608 1.1552752 -1.3629993
-9.9016609 2.2532368 1.1875249
-5.6093168 1.2764645 -1.3630664
-8.9239149 2.0307393 1.286238
-6.2681398 1.4263872 -1.3663958
-8.9231901 2.0305746 1.5035057
-7.1597667 1.6292871 -1.3834565
-8.3479509 1.8996722 1.6130452
-0 0 0
-10.769719 2.5160997 -1.8170469
-0 0 0
-6.831109 1.5959331 -0.98590231
-0 0 0
-10.809281 2.5253425 -1.2981002
-0 0 0
-10.783529 2.5193262 -1.0331442
-0 0 0
-10.809804 2.5254645 -0.77625
-0 0 0
-10.810819 2.5257015 -0.51772827
-0 0 0
-10.815757 2.5268555 -0.25787196
-0 0 0
-10.814777 2.5266266 0
-0 0 0
-10.811864 2.5259459 0.25777912
-3.8894107 0.90867227 -1.3496132
-10.820545 2.5279741 0.51819408
-4.2351356 0.98944306 -1.3571174
-10.823404 2.5286419 0.77722663
-4.6166253 1.0785694 -1.3594435
-10.822312 2.5283871 1.0368599
-5.0681381 1.1840551 -1.3624928
-9.8923883 2.3111312 1.1879895
-5.5886064 1.3056507 -1.3598386
-8.9178562 2.0834541 1.2870729
-6.2617249 1.4629095 -1.3668116
-8.919035 2.0837295 1.5048028
-7.1502638 1.6704963 -1.3834565
-8.3387852 1.9481673 1.6134155
-0 0 0
-10.782934 2.588753 -1.8219105
-0 0 0
-6.8713036 1.6496537 -0.99313933
-0 0 0
-10.797516 2.5922537 -1.2985649
-0 0 0
-0 0 0
-0 0 0
-10.799995 2.592849 -0.77666861
-0 0 0
-10.799073 2.5926275 -0.51791459
-0 0 0
-10.804008 2.5938122 -0.25796479
-0 0 0
-10.806919 2.5945113 0
-0 0 0
-10.805952 2.5942791 0.25801122
-3.9114234 0.93904948 -1.3592167
-10.808786 2.5949595 0.5183804
-4.2271562 1.0148501 -1.3565217
-10.813575 2.5961092 0.77764517
-4.6118193 1.1071997 -1.3599948
-10.808601 2.5949152 1.0370456
-5.0664549 1.2163479 -1.3640122
-9.8819485 2.3724456 1.188454
-5.5880957 1.3415828 -1.3616831
-8.9107409 2.1392791 1.287908
-6.2317476 1.49611 -1.3622376
-8.9118958 2.1395564 1.5057755
-7.1265483 1.7109325 -1.3808644
-8.3305511 1.999988 1.6141561
-0 0 0
-10.788923 2.6560054 -1.8254771
-0 0 0
-9.6675196 2.3799393 -1.3992466
-0 0 0
-10.790123 2.6563005 -1.2994941
-0 0 0
-10.779942 2.6537941 -1.0357451
-0 0 0
-10.790694 2.6564412 -0.77708709
-0 0 0
-10.791721 2.6566939 -0.51828724
-0 0 0
-10.798597 2.6583867 -0.25819689
-0 0 0
-10.80345 2.6595812 0
-0 0 0
-10.794715 2.6574311 0.25810406
-3.8838723 0.95612735 -1.3515339
-10.805301 2.6600368 0.51893944
-4.221241 1.0391804 -1.3565217
-10.806192 2.6602564 0.77820319
-4.6016326 1.1328248 -1.3588922
-10.808946 2.6609342 1.0385319
-5.0537291 1.2441214 -1.3624928
-9.8719778 2.4302726 1.1889186
-5.5821662 1.3742114 -1.3621444
-8.9059639 2.1924603 1.2890214
-6.245822 1.5375896 -1.3672274
-8.9051743 2.192266 1.5067482
-7.1242099 1.7538302 -1.3823457
-8.3188944 2.0479362 1.6141561
-0 0 0
-10.763881 2.7156832 -1.823856
-0 0 0
-9.6478901 2.4341233 -1.3984114
-0 0 0
-10.77657 2.7188847 -1.2997264
-0 0 0
-7.1441383 1.8024369 -0.6874004
-0 0 0
-10.781019 2.7200072 -0.7775057
-0 0 0
-10.787864 2.721734 -0.51884627
-0 0 0
-10.788923 2.7220013 -0.25833616
-0 0 0
-10.793771 2.7232244 0
-0 0 0
-10.788923 2.7220013 0.25833616
-3.896673 0.98311466 -1.3579363
-10.79755 2.7241778 0.51931208
-4.2207394 1.0648754 -1.358309
-10.802299 2.7253759 0.77904028
-4.5950317 1.1593078 -1.3588922
-10.801165 2.7250898 1.0392751
-5.0483561 1.2736796 -1.3629993
-9.8809309 2.4929185 1.1917062
-5.5741587 1.4063375 -1.3621444
-8.8989506 2.2451689 1.2898564
-6.2254815 1.5706636 -1.3647324
-8.900054 2.2454474 1.5080451
-0 0 0
-8.3107719 2.0967739 1.6148967
-0 0 0
-7.3943319 1.912305 -1.2548128
-0 0 0
-7.393693 1.9121397 -1.073303
-0 0 0
-0 0 0
-0 0 0
-10.7501 2.7801659 -1.035931
-0 0 0
-10.776278 2.786936 -0.77834278
-0 0 0
-10.777326 2.7872069 -0.51912576
-0 0 0
-10.780324 2.7879825 -0.25852185
-0 0 0
-10.785165 2.7892344 0
-0 0 0
-10.778388 2.7874818 0.25847542
-3.8779294 1.0029012 -1.3534546
-10.785063 2.7892079 0.51949841
-4.210649 1.0889482 -1.3571174
-10.793662 2.7914319 0.77959836
-4.5824876 1.1851124 -1.3572384
-10.788659 2.790138 1.0396466
-5.0463285 1.3050698 -1.3645189
-9.8544235 2.5485282 1.1903124
-5.546874 1.4345196 -1.3575331
-8.8950577 2.3004193 1.2912482
-6.2198391 1.6085603 -1.3655641
-8.888484 2.2987192 1.5083694
-7.1013112 1.8365246 -1.3819753
-8.2962799 2.1455646 1.6145264
-0 0 0
-10.777176 2.8534901 -1.8316377
-0 0 0
-9.6130247 2.5452559 -1.3975765
-0 0 0
-0 0 0
-0 0 0
-10.743535 2.844583 -1.0368599
-0 0 0
-10.769691 2.8515084 -0.77904028
-0 0 0
-10.768819 2.8512776 -0.51949841
-0 0 0
-10.769886 2.8515601 -0.25866112
-0 0 0
-10.774722 2.8528407 0
-0.45601234 0.12073912 -0.17169411
-10.769886 2.8515601 0.25866112
-3.8812473 1.027644 -1.3566558
-10.778476 2.8538342 0.51996428
-4.2061524 1.1136698 -1.3577131
-10.781262 2.8545721 0.77987736
-4.5774441 1.2119772 -1.3577896
-10.782035 2.8547766 1.0405755
-5.0312467 1.3321313 -1.3624928
-9.8472633 2.6072757 1.1912416
-5.5516887 1.4699296 -1.3607609
-8.8854895 2.3526254 1.2918048
-6.2029071 1.6423538 -1.3639008
-8.8846359 2.3523993 1.5099906
-7.075417 1.8733696 -1.3790129
-8.2856846 2.193814 1.6148967
-0 0 0
-10.752435 2.9153256 -1.8303409
-0 0 0
-9.5671663 2.5939617 -1.3931228
-0 0 0
-0 0 0
-0 0 0
-10.730309 2.9093266 -1.0372314
-0 0 0
-10.760283 2.9174535 -0.77959836
-0 0 0
-10.763279 2.9182658 -0.52005744
-0 0 0
-10.766285 2.9190807 -0.25898609
-0 0 0
-10.769186 2.9198673 0
-0.46435729 0.12590197 -0.17511432
-10.762424 2.9180341 0.25889322
-3.8805673 1.0521446 -1.3585765
-10.77292 2.9208798 0.52052325
-4.197628 1.1381098 -1.3571174
-10.777614 2.9221523 0.78085393
-4.5683165 1.2386153 -1.3572384
-10.774515 2.9213123 1.0415045
-5.0251207 1.3624693 -1.3629993
-9.835453 2.6667027 1.1917062
-5.5391116 1.5018286 -1.3598386
-8.8713732 2.4053102 1.2918048
-6.3271089 1.7154796 -1.3934243
-8.876235 2.4066284 1.5109633
-6.4040432 1.7363389 -1.250147
-8.272521 2.2429426 1.6148967
-0 0 0
-6.3576012 1.7631187 -1.0839379
-0 0 0
-6.3629551 1.7646035 -0.92800629
-0 0 0
-6.3743405 1.767761 -0.77356368
-0 0 0
-10.726807 2.9748065 -1.0385319
-0 0 0
-10.756759 2.9831128 -0.78057492
-0 0 0
-10.753993 2.9823461 -0.52043009
-0 0 0
-10.758925 2.9837139 -0.25921816
-0 0 0
-10.763752 2.9850523 0
-3.6039555 0.99946523 -1.3612401
-10.745439 2.9799736 0.25889322
-3.8616614 1.0709333 -1.3540947
-10.765544 2.9855494 0.52098912
-4.1910028 1.1622679 -1.3571174
-10.766371 2.9857788 0.78127253
-4.5629587 1.2654204 -1.3577896
-10.763267 2.9849179 1.0420618
-5.0041385 1.3877704 -1.3594537
-9.8390732 2.7286162 1.1940292
-5.5284944 1.533187 -1.3593776
-8.8707314 2.4600711 1.2937533
-6.1908183 1.7168658 -1.3655641
-8.8679304 2.4592946 1.5119361
-0 0 0
-8.2651472 2.2921278 1.6160077
-0 0 0
-10.736595 3.0462461 -1.8335831
-0 0 0
-0 0 0
-0 0 0
-0 0 0
-0 0 0
-10.722377 3.0422118 -1.0398324
-0 0 0
-10.740788 3.0474353 -0.78071445
-0.44118577 0.12517565 -0.20418181
-10.741873 3.0477433 -0.52070957
-0 0 0
-10.752573 3.0507793 -0.25949669
-0 0 0
-10.759319 3.0526934 0
-3.5889213 1.0182686 -1.35782
-10.744879 3.0485964 0.25931102
-3.8625302 1.0958984 -1.3566558
-10.75917 3.0526509 0.52154809
-4.1785221 1.1855533 -1.3553301
-10.759981 3.0528812 0.78210962
-4.55722 1.2929995 -1.358341
-10.758775 3.0525389 1.0433623
-5.0125675 1.4221934 -1.3640122
-9.8265305 2.7880375 1.1944939
-5.517427 1.5654348 -1.3589164
-8.859787 2.5137477 1.2943099
-6.1786404 1.7530378 -1.3651483
-8.8645735 2.5151057 1.5138814
-6.8276367 1.9371747 -1.3371685
-8.2532911 2.3416693 1.6163779
-0 0 0
-10.735387 3.1148546 -1.8365012
-0 0 0
-9.5199566 2.7621994 -1.3931228
-0 0 0
-10.721733 3.1108928 -1.305534
-0 0 0
-10.707959 3.1068966 -1.040204
-0 0 0
-10.735927 3.1150112 -0.78169101
-0 0 0
-10.735109 3.114774 -0.52126861
-0 0 0
-10.745801 3.1178761 -0.25977522
-0 0 0
-10.746777 3.1181593 0
-3.5575461 1.0322161 -1.3482434
-10.738121 3.1156478 0.25958955
-3.8468604 1.1161602 -1.3534546
-10.74854 3.1186709 0.52192074
-4.1714134 1.2103286 -1.3553301
-10.749339 3.1189027 0.78266764
-4.5476198 1.3194842 -1.3577896
-10.751946 3.1196594 1.044477
-4.9966073 1.4497573 -1.3619863
-9.8059978 2.8451939 1.1940292
-5.494957 1.5943526 -1.3556886
-8.8542252 2.5690386 1.2957016
-6.1493406 1.7842209 -1.36099
-8.8551798 2.5693154 1.5148543
-0 0 0
-8.2430258 2.3917 1.6171185
-0 0 0
-0 0 0
-0 0 0
-0 0 0
-0 0 0
-10.726492 3.1793668 -1.3083216
-0 0 0
-6.9019365 2.0457563 -0.67160875
-0 0 0
-10.725459 3.1790609 -0.78224909
-0 0 0
-10.730399 3.1805251 -0.52192074
-0 0 0
-10.73725 3.1825557 -0.26000735
-0 0 0
-10.738227 3.1828451 0
-3.5497403 1.0521545 -1.3475593
-10.733417 3.1814196 0.25991452
-3.831285 1.1356052 -1.3502535
-10.739978 3.1833642 0.52238661
-4.1625423 1.2337911 -1.3547344
-10.744588 3.1847305 0.7836442
-4.5362582 1.3445617 -1.3566872
-10.747165 3.1854942 1.0457774
-4.9937396 1.4801606 -1.3635058
-9.8027802 2.9055758 1.1956553
-5.5043416 1.6315047 -1.3602997
-8.8468781 2.6222432 1.2968152
-6.1445889 1.8212761 -1.3622376
-8.8478022 2.6225173 1.5161512
-7.0249906 2.0822299 -1.3804941
-8.2253447 2.4380188 1.6163779
-0 0 0
-10.720896 3.2470376 -1.8403922
-0 0 0
-9.468051 2.8675888 -1.3903394
-0 0 0
-10.703634 3.2418096 -1.3078569
-0 0 0
-6.8668056 2.0797493 -0.66937935
-0.43771699 0.13257134 -0.21648261
-10.717863 3.246119 -0.78308618
-0 0 0
-10.718987 3.2464592 -0.52229345
-0 0 0
-10.725831 3.2485323 -0.26019305
-3.2682712 0.98986125 -1.3334672
-10.73255 3.2505672 0
-3.5470316 1.0742894 -1.3489275
-10.727745 3.2491121 0.26023945
-3.8244789 1.15832 -1.3502535
-10.730459 3.2499342 0.52285242
-4.1533208 1.2579162 -1.3541386
-10.731229 3.2501671 0.7840628
-4.5226803 1.3697841 -1.3550334
-10.739508 3.2526748 1.0468922
-4.9774618 1.5075238 -1.3614798
-9.7872658 2.9642692 1.1958877
-5.5057392 1.6675231 -1.3630664
-8.8387432 2.67699 1.2979285
-6.1336737 1.8577057 -1.3622376
-8.8396406 2.6772618 1.5174482
-7.0181541 2.1255884 -1.381605
-8.2144947 2.4879241 1.6171185
-0 0 0
-10.701438 3.3106031 -1.8403922
-0 0 0
-9.4735718 2.9307499 -1.3936796
-0 0 0
-10.701287 3.3105567 -1.3099477
-0 0 0
-6.8619518 2.1228175 -0.67012244
-0 0 0
-10.711752 3.3137941 -0.7840628
-0.48349646 0.14957476 -0.22533211
-10.709074 3.3129656 -0.52275926
-0 0 0
-10.719734 3.3162637 -0.26051798
-3.2961555 1.0197006 -1.3472894
-10.722624 3.3171573 0
-3.5459802 1.0969865 -1.3509796
-10.712093 3.3138998 0.26033229
-3.8175375 1.1809957 -1.3502535
-10.724343 3.3176894 0.52350461
-4.1476064 1.2831061 -1.3547344
-10.725094 3.3179214 0.78503937
-4.5163078 1.3971678 -1.3555846
-10.723821 3.3175278 1.0472637
-4.9665785 1.5364639 -1.3609732
-9.7770939 3.0246477 1.1968169
-5.4771543 1.6944158 -1.3584553
-8.8302689 2.7317374 1.2990419
-6.1244097 1.8946511 -1.3626534
-8.8367929 2.7337558 1.5197178
-6.9641085 2.1544209 -1.3734583
-8.2014627 2.5372095 1.6174887
-0 0 0
-10.69725 3.3769331 -1.8429862
-0 0 0
-9.4414263 2.9804919 -1.3914527
-0 0 0
-10.691514 3.3751225 -1.3111091
-0 0 0
-6.8173294 2.1521106 -0.66696417
-0 0 0
-10.698197 3.3772321 -0.78448129
-0.54535115 0.17215773 -0.25461715
-10.705059 3.3793981 -0.52350461
-3.1202531 0.98500884 -1.3667098
-10.709991 3.380955 -0.26075009
-3.284898 1.0369843 -1.345107
-10.703341 3.3788562 0
-3.5306427 1.1145616 -1.3475593
-10.696644 3.3767416 0.26042512
-3.8106725 1.2029622 -1.3502535
-10.697437 3.3769922 0.52313191
-4.1328659 1.3046728 -1.3523515
-10.721028 3.3844395 0.78615546
-4.5081863 1.423155 -1.3555846
-10.717829 3.3834295 1.0485642
-4.961338 1.5662069 -1.3619863
-9.7632999 3.0821016 1.1972815
-5.4561701 1.7224166 -1.3556886
-8.8294992 2.7873173 1.3012686
-6.1133966 1.9298915 -1.3626534
-8.8303137 2.7875741 1.5213391
-6.9534602 2.1950846 -1.3738286
-8.192338 2.5861766 1.6185998
-0 0 0
-8.0321856 2.5881355 -1.3864547
-0 0 0
-9.4028368 3.0297875 -1.388391
-0 0 0
-10.67697 3.4403391 -1.3118061
-0 0 0
-10.689981 3.4445317 -1.0478212
-0.51962155 0.16743276 -0.25841007
-10.693158 3.4455554 -0.78559738
-0.6312719 0.20340878 -0.2952908
-10.696224 3.4465435 -0.52406365
-3.0721955 0.98992461 -1.3482095
-10.695448 3.4462934 -0.26088935
-3.2698202 1.0536033 -1.3414695
-10.688812 3.444155 0
-3.5203886 1.1343416 -1.3461913
-10.687836 3.4438403 0.26070365
-3.7980561 1.2238117 -1.3483328
-10.688618 3.4440925 0.52369094
-4.1250505 1.3291761 -1.3523515
-10.71025 3.4510627 0.78685302
-4.4978318 1.449294 -1.3550334
-10.710831 3.4512498 1.0498648
-4.9464312 1.5938419 -1.3604667
-9.7524014 3.1424241 1.1982107
-5.4569664 1.7583468 -1.3584553
-8.8241138 2.8433108 1.3029387
-6.0981116 1.964937 -1.3618217
-8.8230066 2.8429542 1.5229602
-6.9421816 2.2369137 -1.3741989
-8.1787167 2.6353507 1.61897
-0 0 0
-8.0246468 2.6368179 -1.3877517
-0 0 0
-9.394639 3.0869834 -1.3897827
-0 0 0
-10.677737 3.5085967 -1.3143615
-0.54163009 0.17797418 -0.28636706
-10.654831 3.5010698 -1.0463349
-0.58562642 0.19243094 -0.29178089
-10.684509 3.5108218 -0.78643447
-0.64571202 0.21217445 -0.30261207
-10.687584 3.5118322 -0.52462256
-3.0681968 1.0081785 -1.3489804
-10.690619 3.5128293 -0.26126072
-3.2707775 1.0747445 -1.3443794
-10.687799 3.511903 0
-3.5173681 1.1557716 -1.3475593
-10.675423 3.5078361 0.26088935
-3.7909448 1.2456661 -1.3483328
-10.679993 3.5093377 0.52424991
-4.1245818 1.3552959 -1.3547344
-10.701569 3.5164273 0.7876901
-4.4839311 1.4733744 -1.3533795
-10.704019 3.5172324 1.0511652
-4.9353318 1.6217003 -1.3599603
-9.7341413 3.1985404 1.1982107
-5.4393535 1.7873167 -1.3566109
-8.8170004 2.8971772 1.3043305
-6.0848355 1.9994155 -1.3614058
-8.8214865 2.8986514 1.5255542
-6.910511 2.2707241 -1.3704959
-8.1690035 2.6842523 1.6200808
-0 0 0
-7.9901452 2.678117 -1.3845092
-0 0 0
-10.662491 3.573827 -1.5804499
-0.53746527 0.18014628 -0.30140075
-10.669914 3.5763154 -1.3159876
-0.55412096 0.18572889 -0.29354867
-0 0 0
-0 0 0
-10.67673 3.5785999 -0.78741103
-0.65310341 0.21890558 -0.30667943
-10.676028 3.5783648 -0.52508843
-3.0639098 1.0269537 -1.3497512
-10.686647 3.581924 -0.26167852
-3.2643425 1.0941342 -1.3443794
-10.674356 3.5778043 0
-3.510448 1.1766232 -1.3475593
-10.658211 3.5723927 0.26098219
-3.7834864 1.2681396 -1.3483328
-10.670346 3.5764604 0.52480894
-4.1037955 1.3755 -1.3505642
-10.697538 3.5855744 0.78894573
-4.4714632 1.4987339 -1.3522769
-10.690511 3.5832191 1.0519084
-4.9237871 1.6503428 -1.3594537
-9.7281742 3.2606654 1.1998369
-5.4249611 1.818325 -1.3556886
-8.8109198 2.9532223 1.3060005
-6.0524602 2.0286486 -1.3568319
-8.8097439 2.9528282 1.5265269
-0 0 0
-8.1510687 2.7320552 1.6197106
-0 0 0
-0 0 0
-0 0 0
-6.1417656 2.0980074 -0.91214061
-0.57652485 0.19693904 -0.32393542
-10.645378 3.6364269 -1.3155228
-0.58348471 0.1993165 -0.30970734
-0 0 0
-0.6124174 0.20919983 -0.30632716
-10.672934 3.6458399 -0.78866673
-0.65010279 0.22207302 -0.30586597
-10.672256 3.6456084 -0.52592695
-3.0596905 1.0451804 -1.350522
-10.6753 3.6466479 -0.26191062
-3.2597492 1.1135199 -1.345107
-10.670607 3.6450448 0
-3.4964983 1.1943926 -1.3448232
-10.656379 3.6401849 0.26144642
-3.7689469 1.2874602 -1.3457717
-10.666584 3.6436708 0.5256474
-4.1048379 1.4021995 -1.3535429
-10.68615 3.6503544 0.78964329
-4.4663954 1.5257063 -1.3533795
-10.682886 3.6492398 1.0532088
-4.9141998 1.6786749 -1.3594537
-9.7223911 3.3211374 1.201463
-5.4125566 1.848912 -1.3552275
-8.7975121 3.0052018 1.3065572
-6.0554852 2.0685344 -1.3601584
-8.8037958 3.0073483 1.5284723
-6.8946452 2.3551886 -1.3727177
-8.1407776 2.7808635 1.6208216
-0 0 0
-7.9396458 2.7648764 -1.381267
-0 0 0
-6.3368192 2.2067134 -0.94303703
-0.58034909 0.20209888 -0.32675225
-10.65738 3.7112916 -1.3197043
-0.58229172 0.20277537 -0.30970734
-6.1081448 2.1270804 -0.60342604
-0.61457962 0.21401921 -0.30803847
-10.658648 3.7117329 -0.78922474
-2.8452861 0.99083316 -1.3414174
-10.665529 3.7141292 -0.5266723
-3.0482061 1.0614973 -1.3482095
-10.668579 3.7151911 -0.26228198
-3.2495658 1.1316183 -1.343652
-10.656343 3.7109306 0
-3.4911244 1.2157378 -1.3455073
-10.655361 3.7105885 0.26195705
-3.766609 1.3116716 -1.3476925
-10.659869 3.712158 0.52639276
-4.0892334 1.4240214 -1.3511599
-10.675606 3.7176383 0.79048038
-4.4554477 1.5515506 -1.3528283
-10.67797 3.7184615 1.054881
-4.9041524 1.7078061 -1.3594537
-9.7100153 3.3813844 1.2023921
-5.3996525 1.8803574 -1.3547664
-8.7926178 3.0619125 1.3085057
-6.0467997 2.1057179 -1.36099
-8.7951155 3.0627823 1.5300936
-6.8805485 2.3960598 -1.3727177
-8.1222773 2.8284752 1.6204513
-0 0 0
-7.6775947 2.7248108 -1.3384671
-0 0 0
-6.3273454 2.2456017 -0.94359368
-0.58413219 0.20731097 -0.32956904
-10.64453 3.7777886 -1.3208659
-0.58949959 0.20921589 -0.31419584
-6.0897846 2.1612902 -0.60286874
-0.62522405 0.22189467 -0.31402811
-10.649595 3.7795863 -0.79020131
-2.8582969 1.0144216 -1.3503658
-10.650832 3.7800252 -0.52704489
-3.0366356 1.0777148 -1.345897
-10.659534 3.783114 -0.26260695
-3.2410376 1.1502579 -1.3429245
-10.649214 3.7794509 0
-3.4838486 1.2364326 -1.3455073
-10.638808 3.7757578 0.26209632
-3.7534022 1.3320984 -1.3457717
-10.64895 3.779357 0.52695179
-4.0807114 1.4482616 -1.3511599
-10.670279 3.7869267 0.79173595
-4.4479742 1.5786047 -1.3533795
-10.674482 3.7884188 1.0567387
-4.8884621 1.7349358 -1.3579344
-9.6991396 3.4422657 1.2035536
-5.3975692 1.9156201 -1.3570719
-8.7854919 3.1180081 1.3101757
-6.0378842 2.1428707 -1.3618217
-8.7898035 3.1195385 1.5323633
-6.8532434 2.432245 -1.3701257
-8.1109056 2.8785946 1.6215621
-0 0 0
-7.9123397 2.8595414 -1.3822396
-0 0 0
-6.3310704 2.2880664 -0.9460988
-0.59787536 0.2160738 -0.33801955
-10.643146 3.846462 -1.3234212
-0.59332722 0.21443009 -0.31688893
-6.0753627 2.1956527 -0.60268295
-0.62733585 0.22672091 -0.31573945
-10.642662 3.8462873 -0.79131746
-2.8592799 1.0333517 -1.3536196
-10.642035 3.846061 -0.52769709
-3.0269067 1.0939325 -1.3443553
-10.650731 3.8492036 -0.26293188
-3.2308545 1.1676397 -1.3414695
-10.642317 3.8461626 0
-3.4678321 1.253284 -1.342087
-10.626287 3.8403692 0.26232845
-3.7474496 1.3543386 -1.3464121
-10.638279 3.8447032 0.52751076
-4.0740972 1.4723899 -1.3517556
-10.661425 3.8530684 0.79271257
-4.4369998 1.603544 -1.3528283
-10.659977 3.8525448 1.0574819
-4.8747487 1.7617476 -1.3569212
-9.6884937 3.5014484 1.2047151
-5.3754644 1.9427078 -1.3543051
-8.7804251 3.17327 1.3121241
-6.0217628 2.1762817 -1.36099
-8.7828274 3.1741381 1.5343087
-6.8243332 2.4663329 -1.3671632
-8.097888 2.926599 1.6223027
-0 0 0
-7.8674517 2.8962162 -1.377376
-0 0 0
-6.3210993 2.3269629 -0.94665551
-0.59161115 0.21778764 -0.33520272
-10.638775 3.9164128 -1.3257442
-0.59539872 0.21918194 -0.31868434
-6.0659642 2.233041 -0.60305446
-0.64464009 0.23730899 -0.32515174
-10.634629 3.914887 -0.79243356
-2.8599563 1.0528252 -1.3568735
-10.645275 3.9188058 -0.52900147
-3.0203621 1.1118748 -1.3443553
-10.642715 3.9178631 -0.26330328
-3.2238691 1.1867911 -1.3414695
-10.638075 3.9161553 0
-3.4620976 1.2744893 -1.3427711
-10.627703 3.9123373 0.26293188
-3.735791 1.3752429 -1.3451315
-10.634026 3.9146647 0.52844244
-4.0634971 1.4958802 -1.3511599
-10.649608 3.9204006 0.79354966
-4.4256024 1.6291807 -1.3522769
-10.653747 3.9219244 1.0591539
-4.8642087 1.7906432 -1.3569212
-9.6750021 3.5616229 1.2056442
-5.3437529 1.9671761 -1.3492329
-8.7707338 3.2287381 1.3135159
-5.9940557 2.2065697 -1.3576634
-8.7768021 3.2309718 1.5365784
-6.8114228 2.5074639 -1.3675334
-8.0840683 2.9759583 1.6230434
-0 0 0
-7.839551 2.9373271 -1.3754306
-0.58290219 0.21840212 -0.34974509
-6.3075914 2.3633318 -0.94665551
-0.59365416 0.22243068 -0.33708063
-10.623482 3.980412 -1.3266734
-0.59579998 0.22323467 -0.31958205
-6.0548668 2.2686408 -0.60324031
-0.64495534 0.24165222 -0.3260074
-10.628718 3.982374 -0.79368913
-2.8401573 1.0641516 -1.3503658
-10.628139 3.982157 -0.52928096
-3.010452 1.1279578 -1.3428136
-10.634951 3.9847093 -0.26367465
-3.2152355 1.2046862 -1.340742
-10.630325 3.982976 0
-3.4546995 1.2944087 -1.3427711
-10.6181 3.9783955 0.26325688
-3.7260337 1.3960724 -1.3444914
-10.639364 3.9863629 0.52983993
-4.0512376 1.51792 -1.3499684
-10.645534 3.9886744 0.79494482
-4.4161453 1.6546437 -1.3522769
-10.647763 3.9895098 1.0608259
-4.8556266 1.8193088 -1.3574277
-9.6599092 3.61938 1.2063413
-5.3396235 2.000653 -1.3510774
-8.7723932 3.286845 1.3165776
-5.9775834 2.2396843 -1.3568319
-8.772831 3.2870092 1.5391723
-6.7895055 2.5438957 -1.3660523
-8.0704746 3.02385 1.6237839
-0 0 0
-7.8059077 2.9761024 -1.3725125
-0.59140998 0.22548264 -0.35562313
-6.2883239 2.3975041 -0.94582051
-0.60391355 0.23024978 -0.3436532
-10.626366 4.0514383 -1.3299257
-0.59283447 0.22602575 -0.31868434
-6.043561 2.3041852 -0.60342604
-0.65199846 0.24858277 -0.3302857
-10.620521 4.0492096 -0.79480529
-2.8305671 1.07919 -1.3487388
-10.618095 4.048285 -0.52993309
-3.010803 1.1479073 -1.345897
-10.626771 4.0515924 -0.26404601
-3.2012808 1.2205293 -1.3378322
-10.629635 4.0526843 0
-3.4471872 1.3142842 -1.3427711
-10.626771 4.0515924 0.26404601
-3.7143903 1.4161589 -1.3432108
-10.631163 4.053267 0.53058529
-4.0388608 1.5398674 -1.3487769
-10.637299 4.0556064 0.79606086
-4.4065423 1.6800506 -1.3522769
-10.635774 4.0550251 1.0619407
-4.839644 1.8451763 -1.3559082
-9.646327 3.6777859 1.2072704
-5.3480153 2.0389993 -1.3561498
-8.7644205 3.3415475 1.3182477
-5.9737248 2.277559 -1.3589109
-8.7648182 3.3416994 1.5411178
-6.7600498 2.5773556 -1.3630898
-8.0529251 3.070281 1.6237839
-0 0 0
-7.8083482 3.0302262 -1.3760791
-0.58681059 0.22772661 -0.3536638
-6.2573686 2.4283292 -0.94331539
-0.6107679 0.23702386 -0.34834793
-10.609544 4.1173005 -1.3308548
-0.58815044 0.22824658 -0.31688893
-6.0390635 2.3436105 -0.60435498
-0.65725291 0.25506353 -0.33370835
-10.613044 4.118659 -0.79606086
-2.8190029 1.0939851 -1.3462983
-10.610648 4.1177292 -0.53077161
-3.0022178 1.1650862 -1.3451262
-10.619317 4.1210933 -0.26446384
-3.199192 1.2415271 -1.3400146
-10.620314 4.12148 0
-3.4358232 1.3333577 -1.341403
-10.606269 4.1160293 0.26413885
-3.7147534 1.4416035 -1.3464121
-10.621821 4.1220655 0.53133059
-4.0278716 1.563117 -1.3481811
-10.622344 4.1222677 0.79675847
-4.3982873 1.706866 -1.3528283
-10.630089 4.1252732 1.0637985
-4.8268051 1.8731633 -1.3554018
-9.6317406 3.7378392 1.2081996
-5.3249354 2.0664754 -1.3533831
-8.7592087 3.3992314 1.3204745
-5.9473376 2.3080139 -1.3560002
-8.7558737 3.3979371 1.5430632
-6.7592945 2.6231143 -1.3660523
-8.043726 3.1215703 1.6256355
-0 0 0
-7.7755432 3.0707097 -1.3734851
-0.59680104 0.23568805 -0.36052155
-6.2244267 2.4581442 -0.94053191
-0.61427796 0.24259001 -0.35116476
-10.608943 4.1896729 -1.3338747
-0.58013648 0.2291069 -0.31329814
-6.0343099 2.3830636 -0.60528392
-2.6363616 1.0411493 -1.3416787
-10.601405 4.1866961 -0.79703748
-2.8107619 1.1100233 -1.3454849
-10.602749 4.1872268 -0.53161013
-2.9935343 1.1822035 -1.3443553
-10.607693 4.1891789 -0.26478878
-3.1848369 1.2577525 -1.3371047
-10.612411 4.1910424 0
-3.4243543 1.3523425 -1.340035
-10.607693 4.1891789 0.26478878
-3.7026083 1.4622303 -1.3451315
-10.613898 4.1916299 0.5321691
-4.0203009 1.5876931 -1.3487769
-10.619962 4.1940246 0.79843259
-4.3862925 1.7322302 -1.3522769
-10.618385 4.1934018 1.065099
-4.8138051 1.901063 -1.3548952
-9.6112375 3.7956598 1.208432
-5.3035283 2.0944638 -1.3510774
-8.7425661 3.4526052 1.3210312
-5.9480925 2.3490148 -1.3593267
-8.7447329 3.4534609 1.5446844
-6.7527494 2.6667888 -1.3679038
-8.0214033 3.1678042 1.6248949
-0 0 0
-0 0 0
-0.61480695 0.2470261 -0.37227768
-6.1876779 2.4861758 -0.93719172
-0.61446625 0.24688922 -0.35210371
-10.572836 4.2481084 -1.3324808
-0.61193395 0.24587175 -0.33125219
-6.0422368 2.4277382 -0.60751331
-2.6435566 1.0621667 -1.348524
-10.593037 4.2562251 -0.79829305
-2.7973444 1.1239579 -1.342231
-10.596253 4.2575173 -0.53254175
-2.9864666 1.1999462 -1.3443553
-10.59749 4.2580147 -0.26516014
-3.1773176 1.2766291 -1.3371047
-10.598491 4.2584162 0
-3.4215009 1.3747406 -1.342087
-10.599345 4.25876 0.26520658
-3.688592 1.4820564 -1.3432108
-10.605522 4.2612414 0.53300762
-4.0108089 1.6115214 -1.3487769
-10.61155 4.2636638 0.79968822
-4.3759365 1.7582277 -1.3522769
-10.606251 4.2615342 1.0663995
-4.7988491 1.9281517 -1.3538822
-9.605135 3.8592913 1.2105227
-5.2928128 2.1266236 -1.3515385
-8.7347889 3.5095911 1.3229796
-5.9158969 2.3769755 -1.3551685
-8.7405672 3.5119128 1.5476025
-6.7313352 2.7046142 -1.3667929
-8.0115833 3.2190111 1.6267464
-0 0 0
-7.2586079 2.9651399 -1.2882098
-0.61821634 0.25254121 -0.37521669
-0 0 0
-0.62774682 0.25643444 -0.36055416
-0 0 0
-0 0 0
-6.0521188 2.4722891 -0.60992849
-2.6323743 1.0753243 -1.345957
-10.581275 4.3224483 -0.79926968
-2.7958987 1.1421239 -1.3446715
-10.590051 4.3260331 -0.53347343
-2.9812143 1.2178254 -1.3451262
-10.59315 4.3272996 -0.26567078
-3.1733611 1.2963173 -1.3385596
-10.596004 4.3284655 0
-3.4083066 1.3922925 -1.340035
-10.59315 4.3272996 0.26567078
-3.6835029 1.5047101 -1.3444914
-10.599298 4.3298111 0.5339393
-3.9926231 1.6309856 -1.3457981
-10.599745 4.3299937 0.80066484
-4.3639574 1.7826756 -1.3517257
-10.599964 4.3300829 1.0682573
-4.7876639 1.9557598 -1.3538822
-9.5864248 3.9160523 1.2109872
-5.2786746 2.1563373 -1.3510774
-8.7327642 3.5673323 1.325763
-5.9220295 2.4191477 -1.3597426
-8.7329836 3.5674219 1.5498723
-6.7302017 2.7492857 -1.3697553
-7.9947295 3.2658453 1.6271167
-0 0 0
-0 0 0
-0.61675155 0.25609761 -0.37521669
-0 0 0
-0.63115215 0.26207727 -0.36337101
-10.548885 4.38028 -1.3357332
-0 0 0
-6.0543308 2.5139778 -0.61160052
-2.6177897 1.0870012 -1.3416787
-10.576473 4.3917356 -0.80080432
-2.7858992 1.1568063 -1.3430444
-10.57603 4.391551 -0.53403246
-2.970742 1.2335598 -1.3435844
-10.582825 4.3943725 -0.26604217
-3.1624012 1.3131437 -1.3371047
-10.581982 4.3940225 0
-3.3984954 1.4111786 -1.3393508
-10.573591 4.3905387 0.26581004
-3.6730258 1.5251735 -1.3438512
-10.588944 4.396914 0.5346846
-3.9831631 1.6539539 -1.3457981
-10.593057 4.3986211 0.80205989
-4.3536177 1.8077799 -1.3517257
-10.59324 4.3986974 1.0701152
-4.7763205 1.9833015 -1.3538822
-9.565546 3.9719617 1.2112195
-5.2841406 2.1941669 -1.3556886
-8.7230482 3.6221261 1.3274331
-5.888124 2.4449627 -1.3551685
-8.7305202 3.6252286 1.5531148
-6.71244 2.7872486 -1.369385
-7.9757876 3.3118362 1.6271167
-0 0 0
-7.7319469 3.2661006 -1.3789972
-0.62641913 0.26460969 -0.38207445
-9.0382824 3.8179181 -1.3789272
-0.64255321 0.27142498 -0.37088254
-10.54389 4.4539113 -1.3385206
-2.4316661 1.0271755 -1.3259065
-0 0 0
-2.6027749 1.0994546 -1.3374004
-10.567829 4.4640236 -0.80219948
-2.7770982 1.1730915 -1.342231
-10.56557 4.4630694 -0.53487092
-2.9597514 1.2502474 -1.3420427
-10.570518 4.4651599 -0.26641354
-3.1560371 1.3331616 -1.3378322
-10.577052 4.4679193 0
-3.3863494 1.4304492 -1.3379828
-10.553943 4.458158 0.26599574
-3.6584044 1.5453697 -1.3419305
-10.560049 4.4607372 0.5345915
-3.9765034 1.67974 -1.3469898
-10.569667 4.4647999 0.80233896
-4.3371811 1.832096 -1.3500719
-10.551498 4.4571252 1.0686289
-4.7605519 2.0109348 -1.3528693
-9.5447636 4.0318642 1.2116841
-5.2616758 2.2226179 -1.3533831
-8.7244768 3.6853616 1.3310516
-5.8748817 2.4816461 -1.3555844
-8.7209387 3.683867 1.5553844
-6.6934791 2.8274348 -1.3690147
-7.9590297 3.3620241 1.6278574
-0 0 0
-7.6821766 3.2973471 -1.3734851
-0.63930511 0.2744028 -0.39089155
-9.0252419 3.8738179 -1.3803189
-0.65882933 0.28278297 -0.38121092
-10.521714 4.5161343 -1.3389853
-2.4503443 1.0517378 -1.3393719
-10.511013 4.5115409 -1.0671427
-2.5963993 1.1144276 -1.3374004
-10.529109 4.5193081 -0.80122292
-2.7702954 1.1890672 -1.342231
-10.528674 4.5191216 -0.53431195
-2.955893 1.2687296 -1.3435844
-10.537276 4.5228138 -0.26622784
-3.1465943 1.3505825 -1.3371047
-10.540115 4.5240326 0
-3.3832355 1.4521537 -1.340035
-10.524415 4.5172935 0.26590288
-3.6529248 1.5679098 -1.3432108
-10.543361 4.5254254 0.53505731
-3.9579902 1.6988502 -1.3440109
-10.549275 4.5279641 0.8027575
-4.3212562 1.8547714 -1.348418
-10.54578 4.526464 1.0706726
-4.7471128 2.0375576 -1.3523628
-9.5305109 4.0906897 1.2128457
-5.2434216 2.2505836 -1.3519996
-8.7158461 3.7410192 1.3330001
-5.8640862 2.5169854 -1.356416
-8.7177105 3.7418191 1.5586268
-6.6716642 2.8636143 -1.3679038
-7.94134 3.4085851 1.6282277
-0 0 0
-7.6540132 3.3375931 -1.371864
-0 0 0
-8.9809952 3.9162343 -1.3769788
-0 0 0
-10.502811 4.5798345 -1.3399144
-2.4426081 1.0651187 -1.3384743
-10.512235 4.5839434 -1.0699294
-2.5915947 1.1300853 -1.3382561
-10.524851 4.5894446 -0.80289698
-2.7567017 1.2020817 -1.3389771
-10.518953 4.5868731 -0.53515047
-2.9485369 1.2857329 -1.3435844
-10.531214 4.5922194 -0.26673847
-3.1336403 1.3664488 -1.3349222
-10.532218 4.5926571 0
-3.3748157 1.4716152 -1.340035
-10.518383 4.5866246 0.26641354
-3.6368868 1.5858934 -1.34065
-10.537266 4.5948582 0.53608209
-3.9481401 1.7216178 -1.3440109
-10.535823 4.5942292 0.80373406
-4.3140268 1.8811656 -1.3495206
-10.534139 4.5934949 1.0721588
-4.7370725 2.0656378 -1.3528693
-9.5158968 4.1494823 1.2140071
-5.223237 2.2776339 -1.3501552
-8.7050476 3.7959051 1.3346701
-5.8476987 2.5499353 -1.3560002
-8.7068701 3.7966995 1.5605721
-6.6604657 2.9043489 -1.3690147
-7.923378 3.4550519 1.628598
-0 0 0
-7.637681 3.3845541 -1.3725125
-0.65996444 0.29245597 -0.40558675
-8.9630299 3.971868 -1.3778138
-2.2586529 1.000897 -1.3135815
-10.495426 4.6509328 -1.3424698
-2.4378784 1.0803189 -1.3393719
-6.4176216 2.8438983 -0.65488821
-2.5864954 1.1461769 -1.3391117
-10.515671 4.6599035 -0.80429214
-2.7495198 1.2184193 -1.3389771
-10.51164 4.6581173 -0.53617525
-2.9341061 1.3002168 -1.3405011
-10.516573 4.6603031 -0.26706344
-3.1271796 1.3857751 -1.3356497
-10.523063 4.6631794 0
-3.3608685 1.4893318 -1.3379828
-10.520227 4.6619229 0.26715627
-3.629144 1.6082152 -1.3412901
-10.526253 4.6645927 0.53692067
-3.9361091 1.7442433 -1.3434151
-10.530263 4.6663699 0.80540824
-4.3010297 1.905954 -1.3489692
-10.530362 4.6664138 1.074574
-4.7158861 2.089793 -1.3503367
-9.4929218 4.2066836 1.2142395
-5.2060704 2.3070128 -1.3492329
-8.6968555 3.8539157 1.336897
-5.8306756 2.5837996 -1.3555844
-8.6968164 3.8538983 1.5628419
-6.6251445 2.9358597 -1.3653116
-7.9081254 3.5043986 1.6297088
-0.70905024 0.31910604 -0.46112379
-10.529949 4.7389736 -1.8971344
-0 0 0
-8.9472303 4.0266752 -1.3789272
-2.2802265 1.0262094 -1.3295435
-10.463032 4.7088575 -1.341773
-2.4250968 1.0914078 -1.3357811
-10.485152 4.7188125 -1.0727161
-2.5765543 1.1595709 -1.3374004
-10.499575 4.7253036 -0.80512923
-2.7424567 1.2342348 -1.3389771
-10.508321 4.7292395 -0.53738648
-2.926569 1.317094 -1.3405011
-10.507791 4.7290015 -0.26752764
-3.1174476 1.4029983 -1.3349222
-10.510623 4.7302756 0
-3.3505211 1.5078925 -1.3372988
-10.51326 4.731463 0.26766691
-3.6215494 1.6298679 -1.3419305
-10.51743 4.7333393 0.53785229
-3.9277384 1.7676675 -1.3440109
-10.519588 4.7343102 0.80666381
-4.282969 1.9275379 -1.3467642
-10.52147 4.7351575 1.0764319
-4.6967149 2.1137431 -1.3483107
-9.4775934 4.2653637 1.2154011
-5.1891475 2.335361 -1.3483106
-8.6907692 3.9112556 1.3394021
-5.8388891 2.6277754 -1.36099
-8.6960716 3.9136424 1.5667328
-6.2550468 2.8150659 -1.2923617
-7.8913956 3.5515001 1.6304495
-0 0 0
-6.2765756 2.8696661 -1.133871
-0 0 0
-6.2736025 2.8683066 -0.96947992
-2.2901568 1.0470654 -1.338933
-6.2490187 2.8570669 -0.80353057
-2.4234538 1.1080091 -1.3384743
-0 0 0
-2.5679839 1.1740886 -1.3365448
-10.493123 4.797482 -0.80680341
-2.731761 1.2489679 -1.3373501
-10.494608 4.798161 -0.53813183
-2.9170232 1.3336703 -1.3397301
-10.501364 4.8012495 -0.2680847
-3.1107614 1.4222479 -1.3356497
-10.506013 4.8033752 0
-3.3449328 1.5293115 -1.3386669
-10.492272 4.7970929 0.2678526
-3.6135371 1.6521181 -1.3425707
-10.507326 4.8039756 0.53878397
-3.9137075 1.7893568 -1.3428195
-10.511267 4.8057771 0.80819851
-4.2679586 1.9513212 -1.3456618
-10.511297 4.8057914 1.0782897
-4.6928864 2.1455994 -1.3508432
-9.4575348 4.3240085 1.2160978
-5.1928973 2.3742056 -1.352922
-8.6854172 3.9709945 1.3421854
-5.796505 2.6501765 -1.3547527
-8.6888475 3.9725628 1.5696509
-6.5814238 3.0090432 -1.3634601
-7.8773313 3.6015353 1.6319306
-0 0 0
-10.475604 4.8626118 -1.8974587
-2.1509018 0.99841511 -1.3323622
-8.8671961 4.116014 -1.373917
-2.2808843 1.058751 -1.3370551
-10.470316 4.8601575 -1.3499035
-2.4154108 1.121196 -1.3375766
-0 0 0
-2.5644584 1.1903816 -1.3382561
-10.485223 4.8670769 -0.80833799
-2.7278368 1.2662193 -1.3389771
-10.490356 4.8694601 -0.539343
-2.9159894 1.3535568 -1.3428136
-10.497113 4.8725963 -0.26868817
-3.1025183 1.4401406 -1.3356497
-10.499942 4.8739095 0
-3.330955 1.5461774 -1.3366147
-10.488047 4.8683877 0.26845607
-3.5988057 1.6705095 -1.34065
-10.501228 4.8745065 0.53990197
-3.9085319 1.8142796 -1.3446068
-10.50332 4.8754773 0.80973315
-4.2653675 1.9799172 -1.348418
-10.506925 4.8771505 1.0807049
-4.6786962 2.171778 -1.3503367
-9.4414825 4.3825889 1.2172594
-5.1650147 2.3975194 -1.3492329
-8.6803675 4.0292912 1.3449689
-5.7651749 2.6761043 -1.3510102
-8.6855154 4.0316806 1.5732176
-6.5782452 3.053519 -1.3664225
-7.8564572 3.6468449 1.6319306
-0 0 0
-10.492114 4.9484019 -1.9058889
-2.141609 1.0100483 -1.3304029
-8.8257656 4.1625009 -1.3714118
-2.2663887 1.0688981 -1.3323604
-10.461992 4.9341955 -1.3526912
-2.4036674 1.1336432 -1.3348835
-10.466129 4.9361463 -1.0795902
-2.5505989 1.2029405 -1.3348334
-10.478755 4.9421015 -0.8101517
-2.7150934 1.280521 -1.3365368
-10.478484 4.9419737 -0.54027462
-2.8993206 1.3674083 -1.3389593
-10.479812 4.9425998 -0.26901314
-3.088608 1.456682 -1.3334672
-10.486254 4.9456382 0
-3.3197479 1.5656947 -1.3359307
-10.481621 4.9434528 0.26905957
-3.5799651 1.688421 -1.3374487
-10.49294 4.948791 0.54101998
-3.8904691 1.8348641 -1.3422236
-10.489582 4.9472075 0.81098878
-4.2584105 2.0083964 -1.3500719
-10.494946 4.9497375 1.0825627
-4.6705923 2.2027941 -1.3518562
-9.418128 4.4418774 1.217724
-5.1414723 2.4248755 -1.3469274
-8.6663389 4.0873108 1.346639
-5.7504902 2.7121069 -1.3514261
-8.675005 4.0913973 1.5758115
-6.5559149 3.09197 -1.365682
-7.8340335 3.6947696 1.6319306
-2.0217698 0.96780241 -1.3293016
-10.468779 5.0113072 -1.9068615
-2.1341832 1.0216136 -1.3294232
-8.8087902 4.2166858 -1.3725252
-2.2617872 1.0826966 -1.3332994
-10.451316 5.0029478 -1.3550141
-2.3938739 1.1459252 -1.333088
-10.455485 5.0049438 -1.081448
-2.5468891 1.2191721 -1.3365448
-10.468112 5.0109882 -0.81154686
-2.7142649 1.2992934 -1.3397906
-10.469668 5.0117331 -0.54129946
-2.8880675 1.3824911 -1.3374177
-10.472812 5.0132375 -0.2695702
-3.0835276 1.476056 -1.3349222
-10.479242 5.0163159 0
-3.30898 1.5839779 -1.3352467
-10.472812 5.0132375 0.2695702
-3.5701809 1.7090124 -1.3374487
-10.482283 5.0177712 0.54195166
-3.878114 1.8564172 -1.341628
-10.484308 5.0187411 0.81280243
-4.2433033 2.03123 -1.3489692
-10.493206 5.0230002 1.0853496
-4.6578274 2.2296586 -1.3518562
-9.3923883 4.4960489 1.217724
-5.1274204 2.4544485 -1.3469274
-8.6640921 4.1474204 1.3499793
-5.7400675 2.7477169 -1.3526736
-8.6637564 4.1472597 1.5780811
-6.4972234 3.1101604 -1.357165
-7.8179412 3.7423759 1.6330416
-2.0146151 0.97867841 -1.3282814
-10.477023 5.0896254 -1.9136708
-2.128264 1.0338879 -1.3294232
-8.7879229 4.2690787 -1.3730819
-2.2507491 1.0933899 -1.3304825
-10.441985 5.0726042 -1.3575695
-2.3888421 1.1604739 -1.3339857
-10.447983 5.0755181 -1.0836774
-2.5398254 1.23382 -1.3365448
-10.460615 5.0816545 -0.81322098
-2.7034502 1.3133072 -1.3381636
-10.462195 5.0824223 -0.54241747
-2.8866975 1.4023267 -1.3405011
-10.459952 5.0813332 -0.269988
-3.0699487 1.4913481 -1.3327398
-10.466369 5.0844498 0
-3.2981122 1.6021875 -1.3345625
-10.454557 5.078712 0.2698487
-3.5602791 1.7295455 -1.3374487
-10.472977 5.0876598 0.54297644
-3.8673582 1.8787212 -1.341628
-10.478559 5.0903721 0.81461608
-4.224618 2.052274 -1.3467642
-10.478433 5.0903101 1.0868357
-4.6257658 2.2471476 -1.3462847
-8.6569843 4.2054701 1.1255003
-5.1149502 2.4847879 -1.3473885
-8.6507502 4.2024417 1.3516493
-5.7100701 2.7738907 -1.349347
-8.6486034 4.2013988 1.5797024
-6.4226322 3.1200459 -1.3453152
-7.7997947 3.7890565 1.6337821
-2.0164857 0.99442101 -1.3333822
-7.4429178 3.6704419 -1.3634337
-2.1220911 1.0464997 -1.3294232
-8.613225 4.2475739 -1.3497009
-2.2489722 1.1090707 -1.3332994
-8.6122761 4.2471061 -1.122945
-2.3787076 1.1730491 -1.3321904
-8.6120424 4.2469902 -0.89584988
-2.5292161 1.2472717 -1.3348334
-8.6051092 4.2435713 -0.67091775
-2.7005248 1.3317518 -1.3406041
-8.5898809 4.2360616 -0.44664192
-2.873359 1.4169842 -1.3381885
-8.5771732 4.229795 -0.22203447
-3.0593731 1.5087162 -1.3320123
-8.5687227 4.2256274 0
-3.2885458 1.6217318 -1.3345625
-8.5413074 4.2121081 0.22110604
-3.5482535 1.7498055 -1.3368084
-8.5325432 4.2077856 0.44366059
-3.8544285 1.9007943 -1.3410323
-8.5299559 4.2065096 0.6650582
-4.2140884 2.0781589 -1.3473154
-8.5048828 4.1941452 0.88470286
-4.615819 2.2762704 -1.3472977
-8.4946909 4.1891189 1.1076131
-5.0966229 2.513377 -1.3464662
-8.47645 4.1801238 1.3282682
-5.7040353 2.8129196 -1.3518419
-8.4695272 4.1767097 1.5514935
-6.4551225 3.183315 -1.3560541
-7.7754083 3.834408 1.6334119
-2.0076482 1.0044789 -1.331342
-7.4128289 3.7088325 -1.3618125
-2.1160285 1.0587045 -1.3294232
-8.4433784 4.2244434 -1.3268764
-2.2393887 1.1204249 -1.3314215
-0 0 0
-2.371912 1.1867297 -1.3321904
-8.4431868 4.2243476 -0.88080138
-2.5219905 1.2618178 -1.3348334
-8.4306479 4.2180738 -0.6591987
-2.6879079 1.3448308 -1.3381636
-8.4134722 4.2094808 -0.43872273
-2.8634999 1.4326839 -1.3374177
-8.4078302 4.2066574 -0.21827433
-3.050633 1.5263115 -1.3320123
-8.3957872 4.2006321 0
-3.2808318 1.641486 -1.3352467
-8.37922 4.1923432 0.21753159
-3.5398109 1.77106 -1.3374487
-8.3634462 4.1844511 0.43611407
-3.8400021 1.9212536 -1.3398407
-8.3664141 4.185936 0.65417618
-4.1986108 2.1006749 -1.346213
-8.3452387 4.1753411 0.8705833
-4.6164746 2.3097432 -1.3513497
-8.3336306 4.1695337 1.0897259
-5.0785823 2.5409477 -1.345544
-8.3176222 4.1615243 1.3071139
-5.6702447 2.8369718 -1.3476837
-8.3076639 4.1565418 1.5262027
-6.4226198 3.2134049 -1.3530916
-7.7408915 3.8729706 1.6308198
-2.0016522 1.0163746 -1.331342
-7.4100466 3.7625833 -1.365379
-2.1128182 1.072821 -1.3313825
-8.2662926 4.1973572 -1.3029387
-2.2327008 1.1336936 -1.3314215
-8.2928019 4.2108178 -1.0876352
-2.3680153 1.2024019 -1.3339857
-0 0 0
-2.5144584 1.2767611 -1.3348334
-8.2702703 4.1993771 -0.64859569
-2.6766222 1.3591026 -1.3365368
-8.252964 4.1905894 -0.43164209
-2.8582389 1.4513218 -1.3389593
-8.2525759 4.1903925 -0.21488555
-3.0431836 1.5452306 -1.3327398
-8.2334003 4.1806555 0
-3.2676821 1.6592237 -1.3338785
-8.2222672 4.1750031 0.21409638
-3.52755 1.7911763 -1.3368084
-8.2048683 4.1661677 0.42912659
-3.8268318 1.9431421 -1.339245
-8.2008915 4.1641488 0.64315468
-4.1877856 2.1264229 -1.3467642
-8.1835957 4.1553669 0.85627794
-4.5854363 2.328337 -1.3462847
-8.1847582 4.1559567 1.0734649
-5.0599442 2.5692768 -1.3446218
-8.1585712 4.1426601 1.2859596
-5.6533103 2.870569 -1.3476837
-8.150876 4.1387525 1.5018847
-6.4016857 3.2505698 -1.3527213
-7.7615838 3.9410825 1.6400775
-1.9927065 1.0263114 -1.3293016
-7.3847437 3.8033934 -1.3647306
-2.1050539 1.0841742 -1.3304029
-8.1451397 4.1950231 -1.2876297
-2.2277038 1.1473429 -1.3323604
-8.1359615 4.1902962 -1.0702126
-2.364228 1.2176576 -1.3357811
-0 0 0
-2.5070629 1.2912223 -1.3348334
-8.1129189 4.1784282 -0.63813221
-2.6703739 1.3753331 -1.3373501
-8.100811 4.1721921 -0.42493406
-2.8481917 1.4669152 -1.3381885
-8.0932102 4.1682773 -0.21135752
-3.0309203 1.5610266 -1.3312849
-8.07761 4.160243 0
-3.2530587 1.6754355 -1.3318264
-8.0665455 4.1545444 0.21066119
-3.5154903 1.8105967 -1.3361683
-8.0510798 4.1465788 0.42232537
-3.8257601 1.9703962 -1.3428195
-8.0472918 4.1446276 0.63297021
-4.172051 2.1487474 -1.3456618
-8.0232105 4.132225 0.84197253
-4.5702291 2.3538229 -1.3457781
-8.0211716 4.131175 1.0551131
-5.0416017 2.5965958 -1.3436995
-8.0025196 4.1215692 1.2650836
-5.6297259 2.8994997 -1.3460205
-7.9970684 4.1187611 1.4778907
-0 0 0
-7.7387557 3.9857213 1.6400775
-1.9865814 1.038118 -1.3293016
-7.2903309 3.8096719 -1.3514367
-2.0985835 1.0966463 -1.3304029
-7.9849439 4.1726522 -1.266197
-2.216161 1.1580882 -1.3295435
-7.9806705 4.1704192 -1.0530223
-2.356961 1.2316654 -1.3357811
-0 0 0
-2.4977546 1.3052392 -1.3339777
-7.95713 4.1581178 -0.62780821
-2.6621659 1.3911548 -1.3373501
-7.9431119 4.1507926 -0.41794652
-2.8410726 1.4846452 -1.3389593
-7.9389696 4.1486278 -0.20796873
-3.0249064 1.5807103 -1.3327398
-7.9357915 4.1469669 0
-3.2430596 1.6947095 -1.3318264
-7.9123878 4.134737 0.20727241
-3.5063636 1.832303 -1.3368084
-7.9006176 4.1285863 0.41571057
-3.8055401 1.9886421 -1.3398407
-7.9005466 4.1285491 0.62334388
-4.1558189 2.1716855 -1.3445591
-7.8803 4.117969 0.82952505
-4.5424633 2.3737323 -1.3417262
-7.8697548 4.1124587 1.0383873
-5.046803 2.6372826 -1.3492329
-7.8532939 4.1038566 1.2453209
-5.5950832 2.9237947 -1.3418622
-7.8413038 4.0975909 1.4535726
-6.3527861 3.3197439 -1.3504994
-7.7341299 4.0415854 1.6441506
-1.9819059 1.0506936 -1.3303217
-7.4262695 3.9369848 -1.3809427
-2.088958 1.1074464 -1.3284435
-0 0 0
-2.20925 1.1712185 -1.3295435
-7.8311729 4.1516418 -1.0365289
-2.3448739 1.2431185 -1.333088
